ply
format ascii 1.0
comment VCGLIB generated
element vertex 1059
property float x
property float y
property float z
property uchar red
property uchar green
property uchar blue
property uchar alpha
element face 0
property list uchar int vertex_indices
end_header
-0.0759929 0.602484 -0.106509 110 95 19 255 
0.0215666 0.635172 -0.0623187 200 190 89 255 
0.0720767 0.560173 0.0301122 191 159 58 255 
-0.0642277 0.483909 0.114286 181 168 42 255 
-0.0642288 0.409387 0.151994 150 131 25 255 
-0.0811458 0.575793 0.098279 198 162 65 255 
0.0817116 0.407005 0.124023 184 161 90 255 
0.0152289 0.417201 0.160151 149 134 67 255 
0.0587208 0.455534 0.0326858 116 68 47 255 
0.0775707 0.41369 0.086405 110 110 94 255 
0.019367 0.633782 -0.0228031 216 203 94 255 
0.0354296 0.592295 0.0293247 210 196 87 255 
0.0543898 0.597158 -0.0229016 207 179 70 255 
-0.0209559 0.563061 0.08267 211 198 49 255 
-0.0109702 0.373311 0.149314 218 185 64 255 
-0.112812 0.578792 -0.00871608 184 164 49 255 
-0.148079 0.504995 -0.0133421 80 73 51 255 
0.0282382 0.575291 -0.0542845 90 73 20 255 
0.0060479 0.534761 -0.042489 101 88 33 255 
0.0571337 0.426032 0.1821 217 193 32 255 
-0.0514475 0.652131 -0.0596126 205 188 104 255 
-0.0249474 0.517462 0.114144 253 238 26 255 
0.00654233 0.444067 0.15867 177 142 88 255 
0.0098744 0.406189 0.155345 140 133 59 255 
-0.0234449 0.57827 0.062592 220 205 48 255 
-0.0412023 0.574698 0.0802932 221 212 123 255 
0.0100291 0.503481 0.13605 186 163 49 255 
-0.0869437 0.618321 -0.0628688 164 149 51 255 
-0.0444373 0.582633 0.0672644 210 179 26 255 
-0.161584 0.392169 0.131867 204 166 70 255 
0.104306 0.330424 -0.0180448 90 89 64 255 
-0.0347178 0.427252 0.157537 158 149 59 255 
0.00192481 0.380548 -0.00272378 170 203 153 255 
-0.190208 0.432836 0.0170114 92 75 33 255 
-0.125804 0.349369 0.165601 218 192 71 255 
-0.115975 0.582388 0.0265017 209 206 125 255 
0.0257394 0.455435 -0.0528004 194 144 72 255 
0.0451658 0.455147 -0.0380227 107 77 49 255 
-0.121598 0.575359 0.0974622 128 103 41 255 
-0.130657 0.547809 -0.0686317 143 130 102 255 
-0.136887 0.509483 0.078215 146 126 28 255 
-0.128803 0.512324 -0.0691154 168 141 52 255 
-0.0707048 0.424195 0.151878 190 183 84 255 
-0.143782 0.387379 0.145759 174 151 58 255 
-0.0656953 0.502708 0.118842 153 130 39 255 
-0.212126 0.388092 0.0734611 114 105 57 255 
0.0333216 0.694132 -0.0376137 182 189 241 255 
-0.175853 0.433729 0.0733507 103 88 27 255 
-0.135004 0.463739 0.0407866 96 71 34 255 
-0.0863767 0.464339 0.131479 241 216 66 255 
-0.0506415 0.6537 -0.0999238 189 176 150 255 
-0.110856 0.46976 -0.052956 91 74 30 255 
-0.07038 0.622198 -0.0849581 205 185 65 255 
-0.133272 0.543508 0.0429235 228 207 87 255 
-0.157874 0.470242 0.0554855 167 149 46 255 
-0.0892241 0.471925 -0.103636 189 200 179 255 
-0.140877 0.508551 0.111148 164 162 130 255 
-0.0694008 0.471358 -0.0830719 159 144 120 255 
-0.0925275 0.617441 -0.0271387 226 209 58 255 
-0.0522565 0.620938 -0.100556 125 114 55 255 
-0.150522 0.393183 0.0214491 74 69 65 255 
-0.181132 0.389054 0.142987 160 103 82 255 
-0.0760576 0.621937 -0.0066776 201 199 100 255 
-0.0595741 0.391244 0.00845203 76 83 68 255 
-0.100854 0.356428 0.0445182 140 138 82 255 
-0.135248 0.353317 0.0360622 146 176 139 255 
-0.0683509 0.583348 -0.118659 145 123 40 255 
-0.0895793 0.46331 -0.0648583 79 69 57 255 
-0.0170912 0.427351 -0.0621391 136 120 72 255 
-0.0639009 0.355031 0.0415043 96 114 83 255 
-0.170921 0.426717 0.00211945 103 80 33 255 
0.032011 0.395302 -0.0375815 113 155 102 255 
-0.0899137 0.547219 -0.100987 91 79 28 255 
-0.0535077 0.464154 -0.0628364 162 177 147 255 
0.0614408 0.356203 0.0369631 149 122 97 255 
-0.0651268 0.617191 0.0811065 164 174 235 255 
0.0676687 0.467757 -0.00122717 163 133 106 255 
-0.0794066 0.390217 0.026801 103 127 84 255 
-0.110229 0.504017 -0.0862466 90 76 33 255 
-0.0636869 0.59437 0.059897 193 183 74 255 
-0.0445101 0.646684 -0.0593165 156 165 235 255 
0.0436455 0.554474 0.0695385 225 193 91 255 
-0.0710887 0.531739 -0.116059 105 91 63 255 
0.0803252 0.453677 -0.0346477 164 83 66 255 
-0.0398805 0.460963 -0.0772739 141 145 113 255 
0.0343385 0.652524 -0.00146869 248 223 62 255 
-0.00315768 0.395177 -0.00204358 88 88 80 255 
-0.147067 0.373521 0.032854 88 71 32 255 
0.0308082 0.394012 -0.00305656 147 175 125 255 
-0.108353 0.546013 -0.081842 112 93 41 255 
-0.0713699 0.504503 -0.0826333 105 89 40 255 
-0.0417013 0.397157 -0.00920418 72 69 63 255 
-0.0216486 0.356603 0.00999013 68 68 60 255 
0.0467919 0.443843 0.17605 102 92 55 255 
0.0281288 0.632962 -0.0252134 253 247 62 255 
-0.0252389 0.637906 -0.00935352 168 176 217 255 
0.0699663 0.54282 -0.00057891 90 72 32 255 
-0.0899213 0.559674 0.111946 139 132 47 255 
-0.0606738 0.643059 -0.0444118 238 238 239 255 
0.051 0.507801 -0.016636 93 74 30 255 
-0.0373747 0.463225 -0.0814237 111 112 94 255 
-0.0987431 0.537868 -0.0799996 90 72 34 255 
-0.0242282 0.3722 0.152884 116 143 101 255 
-0.105408 0.420443 -0.0123652 90 78 28 255 
-0.0756685 0.635638 -0.0547437 170 166 33 255 
-0.0241548 0.442382 0.163423 173 155 76 255 
-0.118632 0.394563 0.0210839 92 78 16 255 
0.0844773 0.403689 0.0830185 125 142 112 255 
0.0190796 0.57639 -0.0576605 111 93 29 255 
-0.001571 0.542574 -0.0413416 119 101 38 255 
0.0415024 0.606558 0.0104286 225 216 109 255 
0.0146914 0.530307 0.101419 188 169 64 255 
-0.0373347 0.497704 0.110964 100 86 29 255 
-0.0448796 0.457042 0.145927 156 140 28 255 
0.0694185 0.579809 0.0173091 166 139 64 255 
-0.0148851 0.652077 -0.0943547 251 218 56 255 
0.0314317 0.575488 0.0475729 190 168 70 255 
0.0620645 0.537678 0.0875926 212 186 51 255 
0.0365421 0.505933 0.00848818 150 127 66 255 
0.00903922 0.385786 0.138375 87 72 37 255 
-0.153141 0.448061 0.0676409 148 126 53 255 
0.0276534 0.636518 -0.0533043 176 163 52 255 
-0.141544 0.409198 0.124611 150 131 42 255 
0.00777823 0.569862 -0.0418121 116 100 36 255 
0.0660288 0.48969 0.156967 168 156 35 255 
0.0111983 0.470592 0.0165884 103 90 64 255 
0.0922269 0.429966 0.111287 134 105 44 255 
0.0728707 0.52976 0.0808521 136 114 40 255 
0.0615559 0.418253 -0.0413262 93 67 40 255 
0.0848819 0.419285 0.10349 120 111 75 255 
0.0137822 0.529287 -0.0435912 109 99 47 255 
0.0252743 0.534346 -0.024119 91 82 18 255 
-0.00399655 0.4929 -0.0293183 120 108 64 255 
-0.0413007 0.559973 0.0951875 155 146 69 255 
-0.052145 0.517607 0.122727 214 196 31 255 
0.0776576 0.530666 0.0465204 163 135 63 255 
-0.00948352 0.491933 -0.0491097 85 79 57 255 
0.0723368 0.524739 0.0324251 96 87 58 255 
-0.0969201 0.497828 -0.0841659 92 78 31 255 
-0.0950317 0.600898 -0.0765871 209 184 50 255 
0.0424997 0.517093 0.12294 204 187 40 255 
-0.0640559 0.540485 -0.117686 92 78 34 255 
-0.072839 0.508491 -0.118705 87 75 44 255 
0.00292444 0.411035 -0.0598526 156 128 61 255 
0.0343847 0.376991 0.115844 159 128 65 255 
-0.0161577 0.462479 -0.0600639 129 107 46 255 
0.0170586 0.542312 -0.0251656 92 81 27 255 
0.0211039 0.581144 -0.0639592 120 103 42 255 
0.0231178 0.538874 0.100588 189 172 45 255 
-0.0651249 0.543201 0.105843 174 159 34 255 
0.0173196 0.387459 0.133816 166 153 79 255 
0.0155493 0.599099 0.0290516 249 242 53 255 
0.093522 0.444917 0.0878094 122 151 109 255 
0.0373179 0.442475 0.176221 161 155 42 255 
0.0299731 0.372847 0.113367 171 136 50 255 
0.0774608 0.531071 0.0371417 143 126 77 255 
0.0691272 0.417508 0.072297 112 98 51 255 
0.0161629 0.616416 0.00701782 228 219 111 255 
0.0495523 0.573696 0.0449465 200 176 53 255 
-0.00612128 0.576505 0.0613638 218 196 43 255 
-0.0870019 0.579127 0.0893548 196 189 107 255 
0.0470159 0.537025 0.0845808 156 133 37 255 
-0.0301666 0.496937 0.11135 163 144 37 255 
0.0230554 0.425389 0.170097 173 154 47 255 
-0.0710077 0.393999 0.142708 151 146 81 255 
-0.165626 0.353868 0.15769 172 144 62 255 
0.0987136 0.402472 0.018891 110 148 104 255 
-0.0658276 0.484422 -0.12376 214 210 201 255 
0.000453115 0.577184 -0.0868075 119 104 49 255 
0.0222905 0.504491 0.137471 126 111 20 255 
0.00186801 0.386022 0.15096 145 132 51 255 
-0.0479621 0.44308 0.149851 164 156 58 255 
0.0337633 0.373653 0.0840254 113 107 86 255 
-0.108015 0.49249 -0.0978518 122 107 74 255 
-0.0191563 0.564961 -0.0830535 116 106 59 255 
-0.169512 0.368724 0.149787 144 147 61 255 
0.0530297 0.40848 0.16139 245 194 84 255 
0.0206928 0.653287 -0.0425978 185 169 48 255 
0.000378907 0.654752 -0.0263977 253 245 51 255 
-0.0747955 0.484052 -0.0918155 157 118 41 255 
0.0184718 0.619083 -0.00651059 173 170 143 255 
-0.0260966 0.53926 0.102181 227 205 35 255 
-0.0626817 0.461832 0.132035 182 165 45 255 
-0.0665183 0.485194 -0.0834037 117 93 44 255 
0.00403845 0.621467 -0.0851543 162 150 75 255 
0.00524467 0.592671 0.0399095 227 214 52 255 
-0.0152103 0.484691 -0.0300783 80 76 58 255 
0.035101 0.484087 0.0282377 119 102 59 255 
0.0261613 0.369082 0.100112 144 127 75 255 
-0.0335019 0.564138 0.0884794 154 146 99 255 
0.0511802 0.489164 0.150363 198 179 25 255 
0.0699061 0.578379 -0.00648406 197 157 62 255 
-0.0655768 0.50558 0.105917 181 169 70 255 
0.0430419 0.390238 0.115103 147 159 109 255 
-0.125489 0.351836 0.162054 182 145 57 255 
-0.145665 0.522688 0.0656858 159 143 50 255 
-0.128621 0.44955 0.0834527 117 109 47 255 
0.00471312 0.454713 -0.0388395 72 64 55 255 
-0.138294 0.522578 0.0495088 115 103 37 255 
-0.11778 0.461529 0.108051 138 114 32 255 
-0.0024395 0.456613 0.162704 245 227 56 255 
0.0206524 0.483051 0.147841 192 171 36 255 
-0.0911588 0.419829 0.138408 176 151 45 255 
-0.0177752 0.339621 0.0697769 115 103 78 255 
-0.0513195 0.343997 0.106201 173 170 109 255 
-0.0308485 0.559776 -0.0989334 105 90 35 255 
-0.145305 0.368279 0.156175 136 122 64 255 
0.0819508 0.531938 0.0619236 202 169 86 255 
0.0828968 0.539338 0.051282 178 140 54 255 
-0.0367684 0.463143 0.148643 231 211 65 255 
0.092613 0.41328 0.115359 82 98 74 255 
0.0383527 0.522715 0.111264 198 176 43 255 
-0.00874686 0.527466 -0.0564131 91 74 31 255 
0.0886058 0.454587 0.0941857 145 107 52 255 
0.0768303 0.496283 0.0834033 144 117 69 255 
0.053337 0.425688 -0.0294018 202 75 63 255 
0.00529987 0.348588 0.0791419 106 121 78 255 
0.0796407 0.484604 0.0739922 90 71 33 255 
0.0897888 0.408782 0.00263426 133 167 119 255 
-0.0219417 0.491328 -0.0599087 116 92 35 255 
0.0367953 0.617949 -0.0257004 254 243 75 255 
0.0324795 0.538433 0.0874005 195 169 46 255 
-0.0369911 0.385535 0.147346 121 157 109 255 
-0.0491554 0.354582 0.129572 127 134 83 255 
0.104332 0.348727 0.052207 165 134 116 255 
0.0513611 0.576428 -0.0262975 167 147 53 255 
-0.0512516 0.548111 -0.106752 197 183 134 255 
0.0135273 0.461406 0.0050284 113 113 99 255 
0.0328354 0.457484 0.166124 168 146 52 255 
-0.127566 0.458227 0.0987981 153 139 50 255 
-0.0343131 0.383901 0.122951 153 161 91 255 
-0.0412172 0.454906 -0.0983606 66 68 56 255 
-0.0681904 0.516854 0.124706 203 189 84 255 
0.0121656 0.539899 0.103601 191 172 46 255 
-0.0323594 0.630843 0.00888211 253 253 29 255 
-0.0387138 0.619199 0.0220369 157 163 211 255 
-0.0084576 0.53996 0.0974059 232 207 32 255 
0.00813705 0.518537 0.118166 253 231 27 255 
-0.093276 0.49174 -0.117235 153 130 87 255 
0.0592943 0.495796 0.140108 154 130 59 255 
0.0481225 0.420507 -0.00453898 114 149 102 255 
-0.161218 0.417191 0.094804 117 111 60 255 
-0.0571452 0.410833 0.156017 255 253 55 255 
0.0555906 0.419548 0.0571551 130 145 97 255 
-0.0236787 0.573058 0.0754727 229 231 248 255 
-0.0246083 0.642839 -0.0164479 178 169 36 255 
-0.0401353 0.645211 -0.0345796 162 162 154 255 
-0.0659789 0.609173 0.0491977 191 175 27 255 
-0.0810245 0.609052 0.0332149 179 169 55 255 
-0.066356 0.374564 0.14553 192 192 91 255 
-0.0610348 0.57367 0.0986422 197 179 43 255 
-0.0419626 0.640051 -0.0189023 158 169 233 255 
-0.113232 0.5613 -0.0977251 133 115 44 255 
-0.00101531 0.490844 0.128015 170 150 50 255 
0.0538603 0.413539 0.150704 141 118 76 255 
-0.144044 0.496803 0.11871 133 116 29 255 
-0.0426055 0.632992 0.0400761 156 171 234 255 
-0.130787 0.483863 -0.05888 106 87 36 255 
-0.0254902 0.452661 -0.0838213 98 68 23 255 
0.136365 0.386325 0.0293732 131 106 81 255 
-0.00116068 0.618182 0.00824609 207 204 117 255 
0.0461516 0.497025 0.143723 173 154 30 255 
-0.106579 0.497468 0.121528 127 111 19 255 
-0.0737485 0.341859 0.158279 127 142 98 255 
0.0760276 0.407205 -0.03854 147 139 110 255 
0.0723666 0.454771 0.0738148 189 132 92 255 
0.0478687 0.427148 0.00637338 69 69 62 255 
-0.110261 0.483126 0.136229 173 159 75 255 
-0.044139 0.597484 0.0487779 212 196 54 255 
-0.0565146 0.415766 0.148923 152 131 43 255 
-0.137997 0.521855 0.123788 131 122 19 255 
-0.116657 0.451284 0.0105942 88 83 52 255 
-0.129088 0.484556 -0.0227185 89 74 31 255 
-0.0833175 0.491147 -0.128228 172 165 150 255 
-0.0449253 0.390882 0.152041 119 75 43 255 
0.0343391 0.563721 -0.0173596 166 152 109 255 
-0.136923 0.355353 0.162918 212 180 65 255 
0.0616844 0.555427 0.0575785 226 217 134 255 
0.0632727 0.405799 0.143167 161 144 66 255 
0.0158337 0.373976 0.121973 100 127 89 255 
0.0346404 0.579104 -0.0488172 134 121 58 255 
-0.0196019 0.468693 -0.0305874 201 195 150 255 
0.0207009 0.58036 -0.0438035 115 106 69 255 
0.0171144 0.461554 -0.00774947 83 79 65 255 
0.0829221 0.42417 0.104183 121 108 54 255 
-0.0730922 0.424805 0.143102 148 143 67 255 
-0.0329653 0.347417 0.0906936 100 133 79 255 
0.0556669 0.520116 0.0155562 129 120 85 255 
0.0919762 0.408046 0.0150026 112 143 97 255 
-0.00425273 0.37959 0.151234 120 104 31 255 
-0.06724 0.541121 -0.125064 93 78 32 255 
-0.16036 0.456127 0.0616036 143 129 46 255 
-0.0332249 0.546938 -0.0668281 123 115 79 255 
0.0712415 0.539769 0.0131427 128 107 46 255 
0.0816665 0.504171 0.108321 208 181 92 255 
-0.00656551 0.524904 0.11529 231 208 35 255 
-0.042881 0.383784 0.147711 160 145 82 255 
0.0142713 0.54267 -0.0267571 107 102 86 255 
-0.0225875 0.454644 -0.0821847 132 103 51 255 
-0.166511 0.385432 0.136529 213 172 61 255 
-0.0880266 0.605622 -0.0948679 127 112 31 255 
0.00971591 0.650821 -0.0692095 173 181 210 255 
0.0101052 0.634667 -0.0781084 190 170 78 255 
0.0571679 0.595205 0.0176029 219 186 72 255 
0.0820402 0.515213 0.12511 223 192 49 255 
0.0660313 0.579787 0.0264946 172 136 45 255 
0.0202554 0.484092 0.00866255 112 94 73 255 
-0.0631563 0.34673 0.12722 149 131 83 255 
-0.0300028 0.372788 0.153294 125 113 52 255 
-0.0801765 0.542016 0.115802 212 198 63 255 
0.0147769 0.350487 0.0659998 165 166 150 255 
0.0348833 0.615004 -0.00638559 225 204 54 255 
0.0289801 0.50751 -0.0106555 124 105 74 255 
-0.103555 0.563326 -0.11446 88 77 26 255 
-0.0605977 0.491499 -0.0800854 102 86 45 255 
-0.135836 0.443868 0.0108462 142 126 54 255 
0.0766339 0.37803 0.0973008 237 177 88 255 
-0.00889349 0.356485 0.095068 121 92 51 255 
-0.195805 0.355308 0.142333 136 129 59 255 
-0.109043 0.576639 -0.0806528 118 102 34 255 
-0.017477 0.383565 0.145516 105 113 95 255 
0.0206617 0.454791 0.148096 220 201 38 255 
0.0759339 0.407824 0.00401041 116 157 108 255 
-0.128167 0.383325 0.147282 190 178 63 255 
0.0385531 0.404945 -0.00244462 103 98 93 255 
0.0716132 0.372675 0.0111207 138 170 124 255 
-0.0937173 0.498857 0.112171 181 167 53 255 
0.00126064 0.592802 0.046901 216 204 90 255 
0.0142329 0.52224 -0.0451249 116 104 56 255 
-0.0921261 0.379615 0.145622 136 131 58 255 
0.122223 0.386923 0.0509502 133 144 101 255 
0.138293 0.332219 0.0235378 253 165 136 255 
0.015373 0.498848 0.00575042 77 75 53 255 
0.0496404 0.483211 0.012447 72 73 61 255 
0.0879291 0.41335 0.0682271 134 131 72 255 
0.0886055 0.484442 0.0550185 80 66 42 255 
-0.0381925 0.65271 -0.0502118 162 173 225 255 
-0.143351 0.392185 0.142257 162 140 37 255 
0.0461586 0.350338 0.0468321 179 180 164 255 
-0.0259584 0.560895 -0.081336 97 89 49 255 
0.0910733 0.407327 -0.0225572 114 150 109 255 
-0.117059 0.58397 0.0481007 170 158 72 255 
-0.117565 0.582972 0.0163273 165 154 62 255 
-0.140455 0.541618 0.107392 165 151 29 255 
0.0386437 0.461981 0.156427 150 125 40 255 
0.0929716 0.392572 0.102777 121 98 63 255 
-0.184496 0.407566 0.102002 145 128 62 255 
0.0328424 0.562924 0.0633081 180 189 237 255 
-0.0128739 0.521235 -0.0661204 128 106 55 255 
0.00926226 0.374591 0.12378 237 188 90 255 
-0.0585462 0.618171 0.0403859 205 186 17 255 
-0.139881 0.463984 0.104698 216 191 37 255 
-0.0773727 0.618839 0.0148312 177 164 72 255 
-0.0193877 0.425286 0.16629 170 154 49 255 
0.0390152 0.577631 -0.0240803 123 106 40 255 
-0.134947 0.546306 0.0363865 163 147 61 255 
-0.0279489 0.561227 -0.0843258 140 126 64 255 
0.02659 0.448641 -0.0615187 151 119 65 255 
-0.147112 0.545208 -0.0205552 148 129 46 255 
-0.15393 0.463963 0.0837244 65 76 56 255 
-0.123213 0.423939 0.120107 163 157 59 255 
0.0709922 0.561755 0.0517113 199 179 95 255 
-0.121029 0.541329 0.12217 179 164 23 255 
-0.182095 0.394039 0.138689 150 132 71 255 
-0.00716132 0.347451 0.0813139 154 148 99 255 
-0.0985678 0.562834 0.114401 219 205 30 255 
0.0284883 0.462979 0.158041 237 207 54 255 
0.113087 0.406555 -0.00259569 87 71 35 255 
-0.0888567 0.54009 0.127546 193 173 24 255 
-0.149708 0.544097 0.013174 167 147 46 255 
-0.0148134 0.484412 -0.024292 76 74 56 255 
-0.118808 0.575533 0.0860827 100 93 24 255 
-0.1091 0.582875 -0.0603618 151 142 87 255 
-0.212989 0.392759 0.134063 135 108 48 255 
-0.0611307 0.649042 -0.0169362 254 251 255 255 
-0.0470229 0.539744 -0.0857429 95 79 29 255 
-0.0649322 0.469266 -0.100885 119 109 82 255 
0.0781127 0.568818 0.0334756 242 205 76 255 
-0.0175084 0.497669 0.118557 159 141 38 255 
0.0130942 0.33741 0.0447777 99 59 51 255 
-0.132423 0.52114 0.126971 142 131 28 255 
0.0570426 0.457038 0.172512 193 193 53 255 
0.0573874 0.419391 0.171188 182 160 40 255 
-0.0862224 0.369213 0.0397752 72 73 68 255 
-0.0572398 0.531634 -0.0914935 89 76 44 255 
0.0733883 0.369559 0.0825579 172 144 97 255 
0.00868911 0.527509 -0.0446252 130 119 67 255 
-0.148276 0.5054 -0.0227207 133 118 50 255 
-0.00820148 0.653271 -0.0831463 244 231 92 255 
-0.190704 0.432671 0.0797175 92 78 38 255 
0.0270873 0.641225 -0.0518158 210 194 67 255 
0.0389243 0.608637 -0.0336682 226 208 69 255 
0.100378 0.353412 0.062881 91 136 73 255 
0.0294553 0.533047 0.111661 222 196 39 255 
0.121927 0.372603 0.0564658 128 77 65 255 
0.0566163 0.498192 0.0311109 108 84 36 255 
-0.0200136 0.659494 -0.0325022 200 194 33 255 
-0.0766877 0.527439 0.117918 112 99 17 255 
-0.0332747 0.375107 0.162524 125 101 13 255 
-0.00566 0.61572 0.022377 222 219 143 255 
-0.173744 0.37656 0.141749 185 170 83 255 
-0.0689152 0.57225 0.0960167 181 168 40 255 
-0.109849 0.574308 0.093051 183 191 192 255 
-0.138103 0.372597 0.147273 79 84 49 255 
-0.113657 0.422562 0.129269 161 160 60 255 
-0.0824371 0.442716 0.132061 136 125 52 255 
-0.00999653 0.384732 0.155326 131 121 70 255 
-0.10599 0.406917 0.146744 154 158 66 255 
0.0109143 0.383115 0.14132 174 145 75 255 
-0.112809 0.579324 -0.0216871 130 118 48 255 
0.0399325 0.505724 0.119724 199 152 72 255 
-0.125562 0.505451 -0.0820287 153 127 52 255 
-0.188705 0.433934 0.0437943 195 156 79 255 
-0.11006 0.469734 -0.0543543 104 96 67 255 
-0.15563 0.433415 0.0867301 173 149 59 255 
-0.0186599 0.653167 0.00352398 155 167 232 255 
-0.104084 0.543794 -0.0960633 144 134 97 255 
-0.106496 0.511059 -0.0952968 133 108 53 255 
-0.098638 0.464091 -0.00333425 186 162 49 255 
-0.104983 0.423425 0.143467 138 121 39 255 
-0.0884589 0.615096 -0.0377677 176 173 123 255 
-0.139536 0.426337 0.103373 120 125 67 255 
-0.107982 0.586379 -0.0912493 104 88 28 255 
-0.141023 0.501657 0.107421 192 183 135 255 
-0.0539502 0.650401 -0.0684338 190 189 181 255 
-0.0502121 0.613839 -0.104886 217 190 49 255 
-0.0874305 0.471999 -0.110025 191 200 179 255 
-0.0685502 0.464564 -0.0917902 123 117 88 255 
-0.12855 0.43116 -0.0423206 114 122 76 255 
-0.173262 0.433777 0.0655635 106 87 30 255 
-0.134058 0.471139 0.030145 210 200 148 255 
-0.122478 0.503608 0.127234 220 221 224 255 
-0.13523 0.504258 0.0291853 151 135 53 255 
-0.125632 0.464131 0.122079 196 190 72 255 
-0.0694986 0.619958 -0.0899939 167 148 54 255 
-0.0893998 0.505145 -0.109586 171 148 112 255 
-0.05362 0.462345 -0.0758525 126 121 83 255 
-0.138998 0.35866 0.0301729 162 162 89 255 
-0.191799 0.358898 0.0445442 126 141 77 255 
-0.152142 0.433881 0.00905213 119 99 43 255 
-0.211326 0.388597 0.0590918 90 79 50 255 
-0.133422 0.432468 -0.00435135 126 108 39 255 
-0.0726704 0.621959 -0.0158632 195 170 35 255 
-0.137429 0.502868 0.0687009 167 148 38 255 
-0.0356116 0.42889 -0.0523279 114 149 105 255 
-0.116731 0.469905 0.0159458 122 107 39 255 
-0.0721648 0.430539 -0.0564987 70 69 61 255 
-0.0964088 0.395512 -0.00146002 104 144 92 255 
-0.00210696 0.38851 -0.0143542 72 70 64 255 
-0.0145008 0.427399 -0.0699263 91 71 36 255 
-0.126473 0.547805 -0.0792155 119 100 35 255 
-0.18876 0.42589 0.0104871 109 143 99 255 
0.0340046 0.395502 -0.0475628 131 169 120 255 
-0.19206 0.394331 0.0422314 145 124 60 255 
-0.0866714 0.585014 -0.11244 160 145 35 255 
-0.0984392 0.389695 0.0307807 109 151 91 255 
0.0111236 0.355743 0.00458914 148 184 137 255 
0.103413 0.464008 0.0562259 188 121 74 255 
-0.169715 0.427776 0.0880161 185 160 57 255 
-0.174923 0.393803 0.126104 253 245 72 255 
-0.0967478 0.522263 0.123206 181 160 28 255 
0.0138582 0.688803 -0.030132 148 161 229 255 
0.0150762 0.469716 -0.0293612 104 104 92 255 
0.0144783 0.395346 0.006152 72 71 62 255 
-0.154178 0.531377 -0.00963965 134 114 41 255 
-0.208768 0.368517 0.140387 141 122 61 255 
-0.0737879 0.470704 -0.0559248 65 66 61 255 
-0.0780098 0.39057 0.0146257 130 133 76 255 
0.0197868 0.652036 -0.0671866 167 168 192 255 
0.0172734 0.6339 -0.077722 154 134 40 255 
-0.149509 0.469701 0.0472889 88 76 25 255 
0.0700591 0.467679 -0.00542203 195 198 173 255 
0.0298145 0.394443 -0.011037 167 198 158 255 
0.0476273 0.405298 0.137961 106 112 80 255 
0.0356963 0.469122 -0.0101955 169 122 70 255 
-0.119321 0.351199 0.0470093 103 122 70 255 
-0.100375 0.575676 0.09288 205 177 84 255 
0.0724046 0.505055 0.0530154 129 109 48 255 
0.0220935 0.505659 -0.00530058 104 91 54 255 
0.047792 0.385527 0.10303 110 110 71 255 
0.0140193 0.505175 -0.0302757 146 112 56 255 
0.0367518 0.447182 0.17771 140 173 137 255 
0.0793962 0.462985 0.0851587 151 102 65 255 
0.0538064 0.420306 0.158024 226 188 47 255 
0.000767291 0.505128 -0.0526475 192 145 79 255 
-0.0804617 0.380778 0.144848 145 154 101 255 
0.038792 0.618681 -0.0486526 157 144 109 255 
0.0642244 0.503064 0.122475 141 117 37 255 
-0.137112 0.431344 0.0898899 199 203 81 255 
-0.049085 0.424233 0.153082 175 173 67 255 
0.0905174 0.516481 0.129929 252 231 56 255 
0.0315069 0.349406 0.0496067 83 112 48 255 
0.0187872 0.339567 0.0350347 101 154 89 255 
0.0662891 0.425165 0.0650546 153 148 47 255 
-0.0404565 0.611826 0.0340768 209 189 43 255 
-0.0534754 0.482758 0.114866 179 163 38 255 
0.071226 0.566966 0.0388305 152 139 92 255 
-0.0445631 0.534031 0.104672 210 196 26 255 
0.0406072 0.339731 0.0326466 136 189 126 255 
0.0138258 0.44564 0.159102 151 148 71 255 
-0.0288159 0.461747 -0.0672706 140 133 85 255 
0.0168543 0.496225 0.12333 148 128 30 255 
-0.0141628 0.507347 -0.0685851 189 145 77 255 
-0.110563 0.497599 0.128519 192 177 25 255 
-0.0723863 0.455784 0.132116 112 102 33 255 
-0.127906 0.422414 0.111888 131 111 22 255 
-0.0327317 0.635374 -0.100672 211 187 45 255 
-0.0582803 0.643512 -0.0615777 170 170 199 255 
0.0293087 0.615718 -0.00956854 207 198 99 255 
-0.013374 0.579486 0.0646149 229 213 62 255 
0.018737 0.539284 0.101793 188 163 38 255 
-0.0730025 0.349132 0.15123 205 172 50 255 
-0.139939 0.52993 0.0466545 157 138 32 255 
-0.143187 0.491072 0.0840497 165 146 44 255 
-0.144341 0.497526 0.0444312 141 118 41 255 
0.102338 0.408237 -0.0161462 119 156 108 255 
-0.102828 0.373467 0.150693 142 185 111 255 
0.0749735 0.531237 0.096858 176 143 48 255 
-0.0832158 0.504879 0.110692 186 177 89 255 
-0.043493 0.352185 0.116146 114 144 101 255 
-0.0268162 0.491342 0.124424 254 236 32 255 
-0.11008 0.376448 0.153944 162 136 80 255 
-0.00519347 0.522529 -0.0599026 117 100 40 255 
0.0807064 0.539542 0.0518846 170 138 56 255 
0.038254 0.537845 0.0869911 198 175 47 255 
-0.0187284 0.538619 0.0989752 228 203 33 255 
-0.0569916 0.463457 0.135263 214 193 34 255 
-0.0590587 0.393075 0.134705 205 173 59 255 
-0.00342518 0.384117 0.153518 187 183 86 255 
-0.114942 0.573293 -0.0413755 186 166 53 255 
-0.0312572 0.469125 -0.0687267 199 172 142 255 
-0.134536 0.533873 -0.0633093 116 99 35 255 
-0.0278862 0.644095 0.0187247 161 173 227 255 
-0.0953702 0.609753 -0.0620374 134 123 39 255 
0.0649592 0.583496 -0.00379041 170 151 73 255 
0.0342405 0.578851 -0.0416326 91 83 31 255 
-0.0324405 0.573878 0.077883 190 188 176 255 
-0.04707 0.457247 0.146529 178 161 59 255 
-0.191715 0.385777 0.135132 140 109 37 255 
-0.218362 0.37932 0.0736901 138 114 47 255 
-0.0324163 0.637841 -0.104219 222 206 70 255 
-0.0720158 0.49615 0.122709 192 170 28 255 
-0.037087 0.49 0.125994 176 168 40 255 
-0.0756317 0.417458 0.15654 192 181 72 255 
-0.0407876 0.413521 0.163462 222 221 102 255 
-0.0720774 0.458712 -0.112274 143 125 82 255 
-0.134873 0.498592 -0.0631905 184 153 65 255 
-0.0593376 0.456698 -0.0957342 147 144 112 255 
-0.00230104 0.419301 -0.0758711 153 120 69 255 
-0.145172 0.522321 0.0159507 141 121 36 255 
0.103258 0.366716 0.0755202 152 98 47 255 
-0.0880738 0.52465 -0.129381 160 142 103 255 
0.0758415 0.423256 0.0871881 102 97 85 255 
-0.0883247 0.531823 -0.131439 94 77 30 255 
-0.0364763 0.4486 -0.07152 114 94 50 255 
-0.0526658 0.648945 -0.0936252 179 184 227 255 
-0.198046 0.422522 0.0589499 145 122 44 255 
-0.0770976 0.392121 0.146665 126 142 81 255 
-0.13747 0.497482 -0.0294613 138 124 89 255 
-0.091533 0.497589 0.13751 246 225 51 255 
0.0493578 0.382215 -0.0498123 98 140 83 255 
-0.00165176 0.67879 -0.0333243 167 170 181 255 
-0.222552 0.378261 0.110216 206 160 69 255 
0.0293269 0.677856 -0.0323364 151 165 230 255 
-0.0526943 0.539784 0.0999882 169 157 46 255 
-0.00229037 0.464039 0.153461 216 206 88 255 
-0.0250054 0.420845 -0.0554762 109 137 92 255 
-0.153825 0.420803 -0.01217 101 88 48 255 
0.0101884 0.616879 0.0110196 173 169 151 255 
0.0273865 0.507563 -0.0078589 113 95 34 255 
0.0619401 0.50465 0.0322351 134 106 53 255 
0.0761796 0.503203 0.0885293 178 142 60 255 
-0.0751365 0.431904 0.147432 230 209 57 255 
-0.0359065 0.607751 -0.107796 144 122 33 255 
-0.0948132 0.603452 -0.0246129 158 145 34 255 
0.0784216 0.347948 0.0226285 119 154 108 255 
0.115341 0.341467 0.0289031 100 144 91 255 
-0.0926102 0.574757 0.0954603 190 182 137 255 
0.0659075 0.428101 -0.00558668 135 169 112 255 
-0.0390354 0.392634 0.151677 106 107 76 255 
0.0580935 0.391423 0.105144 164 140 81 255 
-0.133569 0.350289 0.163021 230 206 77 255 
0.000919044 0.348998 0.080347 149 155 126 255 
-0.111801 0.536883 -0.0800217 131 107 42 255 
0.0832299 0.381669 -0.00827488 136 192 118 255 
0.0416564 0.57038 -0.0262166 230 211 107 255 
0.0449008 0.534184 -0.0129336 95 75 27 255 
-0.0110179 0.381903 -0.00270066 80 79 72 255 
-0.0672568 0.523651 -0.100836 212 203 182 255 
0.0127618 0.376421 0.127611 78 71 61 255 
-0.234869 0.369206 0.0754883 188 155 73 255 
-0.0536728 0.543635 -0.10624 150 131 65 255 
-0.0734898 0.543741 0.114039 180 164 22 255 
-0.0530547 0.352499 0.132926 154 138 81 255 
-0.0378496 0.407071 -0.0311801 100 84 51 255 
-0.140224 0.457495 0.0915914 156 150 71 255 
-0.119729 0.572387 -0.00704378 205 194 31 255 
-0.0582347 0.457543 -0.0617667 92 69 36 255 
-0.104762 0.457127 0.00991073 91 77 27 255 
-0.0342014 0.504367 0.112691 183 168 30 255 
-0.166911 0.385179 0.143714 116 126 88 255 
0.0470053 0.491525 -0.0113587 255 253 249 255 
0.0182551 0.601487 0.0213096 230 220 47 255 
-0.057406 0.536593 -0.0971896 116 103 56 255 
-0.0963507 0.463798 -0.0594583 108 100 56 255 
0.00973743 0.65378 -0.026614 250 236 45 255 
0.0624135 0.575085 0.0355898 224 186 73 255 
-0.0746295 0.508948 -0.125287 173 162 145 255 
0.0076986 0.498617 -0.0264094 91 78 38 255 
-0.0410873 0.636748 0.00200397 209 196 81 255 
-0.0484079 0.37743 0.0297573 179 170 96 255 
-0.0554574 0.603342 0.0496869 195 176 31 255 
-0.135842 0.561462 0.0135119 121 105 31 255 
-0.070094 0.634923 -0.0515607 195 197 178 255 
-0.0982466 0.596981 -0.0876476 201 171 48 255 
-0.119931 0.526831 0.128481 150 136 34 255 
-0.011594 0.532766 0.10865 202 183 37 255 
-0.148671 0.490636 0.0512874 100 85 27 255 
0.082654 0.502676 0.142243 190 173 68 255 
0.0210497 0.393969 0.137737 120 101 43 255 
0.0285532 0.384577 0.00315186 138 169 128 255 
-0.0966914 0.605592 -0.0145865 158 144 46 255 
-0.152954 0.535626 -0.00156903 149 127 45 255 
0.0356502 0.491003 0.145202 245 224 48 255 
0.0297599 0.519869 -0.0269932 92 84 50 255 
0.0483739 0.576659 -0.0242966 115 109 53 255 
-0.0420704 0.371603 0.0408303 165 144 84 255 
-0.127356 0.564325 -0.0205816 200 175 50 255 
0.047959 0.484945 0.0318521 126 104 78 255 
-0.126069 0.563401 -0.058744 149 129 42 255 
-0.141731 0.54543 -0.039722 141 123 55 255 
-0.208374 0.397561 0.119978 170 138 52 255 
-0.0389118 0.545844 -0.0830271 93 79 33 255 
0.0750459 0.497804 0.0508792 137 119 64 255 
0.0949068 0.384196 0.07246 141 172 102 255 
-0.0897433 0.616552 -0.0125763 198 177 37 255 
-0.154984 0.470098 0.109006 145 124 40 255 
0.0748649 0.411302 0.0941471 148 117 43 255 
-0.12825 0.564439 0.0363381 188 175 55 255 
-0.0258977 0.464864 0.136296 124 113 58 255 
-0.00386661 0.645649 -0.0231791 108 101 65 255 
-0.144981 0.490998 0.0904386 197 186 107 255 
-0.0158064 0.365423 0.124396 126 119 75 255 
0.092188 0.498339 0.10881 140 106 58 255 
-0.0388814 0.356456 0.115032 186 168 96 255 
0.060848 0.490357 0.039149 138 100 60 255 
0.0761831 0.414932 0.0596673 116 100 58 255 
0.0895674 0.404935 0.0970236 141 142 110 255 
-0.119028 0.39408 0.14869 161 140 45 255 
-0.168237 0.395529 0.124342 254 252 65 255 
-0.15706 0.457831 0.0690266 163 148 22 255 
-0.0763143 0.598192 0.056373 188 174 33 255 
0.0421841 0.574337 0.0481524 168 146 53 255 
0.0547305 0.483695 0.159845 172 153 31 255 
-0.0160121 0.557414 0.0929473 191 178 80 255 
-0.0222623 0.368378 0.126249 118 126 72 255 
-0.0997026 0.482912 0.114459 235 213 38 255 
-0.152901 0.483429 0.123044 158 148 36 255 
0.0117337 0.461332 0.0114173 140 127 115 255 
0.0605552 0.565372 0.0475846 199 184 146 255 
0.00182277 0.483187 0.135258 141 126 18 255 
0.0193484 0.407557 0.155173 137 136 86 255 
-0.0428647 0.461726 -0.088244 141 150 123 255 
0.0834976 0.391204 0.102949 146 141 82 255 
-0.0201137 0.659812 -0.0974023 237 214 93 255 
-0.137726 0.414026 0.111924 123 159 115 255 
-0.142303 0.489363 0.0660429 150 127 42 255 
0.0469718 0.455823 0.170489 177 158 59 255 
-0.0330146 0.369529 0.12567 132 133 119 255 
-0.0185564 0.56534 -0.0938304 179 159 61 255 
-0.0129735 0.461843 -0.0526861 153 144 107 255 
-0.0725166 0.614873 0.041717 150 133 29 255 
-0.0181214 0.614583 0.024549 238 212 69 255 
-0.115421 0.575555 0.0768972 177 172 110 255 
-0.00344616 0.545246 -0.0442863 137 114 39 255 
-0.104004 0.585185 -0.0722988 112 98 40 255 
-0.00939733 0.503769 0.121273 183 162 31 255 
0.0886294 0.354463 0.0672921 161 141 102 255 
0.0117414 0.448114 -0.0681228 146 120 63 255 
0.0295613 0.56441 -0.0219409 181 161 96 255 
-0.000811636 0.372844 0.134728 137 109 41 255 
0.0690496 0.554255 0.0673435 249 213 57 255 
0.0142713 0.54267 -0.0267571 108 99 59 255 
0.09183 0.430245 0.1055 97 82 40 255 
0.0298241 0.336328 0.0283844 99 80 34 255 
-0.108991 0.584152 -0.0343747 132 118 41 255 
0.0250183 0.421035 0.156433 196 207 44 255 
-0.0641174 0.559708 0.102566 218 205 24 255 
0.0359553 0.38826 0.12405 105 113 93 255 
-0.082506 0.387877 0.149178 118 163 101 255 
0.0437612 0.497866 0.0145255 160 141 101 255 
-0.0756816 0.499279 0.113182 174 165 33 255 
0.114939 0.38535 0.0505188 147 89 72 255 
-0.157206 0.391227 0.143633 135 130 53 255 
-0.0577728 0.406432 0.150141 97 101 49 255 
-0.123509 0.558895 -0.0702138 141 122 42 255 
-0.115166 0.450256 0.089261 129 134 69 255 
-0.108748 0.530487 0.125559 177 160 49 255 
0.136282 0.344403 0.0185796 147 121 90 255 
0.0639272 0.533643 0.0090287 182 163 74 255 
0.0514978 0.611582 -0.022824 253 226 68 255 
0.0549135 0.496206 0.141313 100 84 9 255 
0.033666 0.462543 0.155438 172 153 74 255 
0.0386751 0.348639 0.0499929 107 108 95 255 
-0.0232316 0.655045 -0.0305915 129 121 68 255 
-0.0420919 0.650627 -0.0468577 157 161 183 255 
-0.146569 0.387736 0.144168 172 147 45 255 
-0.0836396 0.352623 0.150695 255 221 72 255 
-0.0361421 0.422877 0.153059 203 199 49 255 
-0.0323225 0.63646 -0.0133773 193 202 242 255 
-0.14182 0.501683 0.108819 194 191 178 255 
-0.14531 0.471593 0.105243 222 213 52 255 
-0.133872 0.543129 0.0537004 197 174 65 255 
-0.203106 0.42583 0.0486275 242 211 53 255 
-0.045069 0.503178 0.112066 122 109 21 255 
-0.22715 0.390929 0.100074 168 148 65 255 
-0.146987 0.489433 0.0189113 133 116 55 255 
-0.0853224 0.62229 -0.0490118 150 133 39 255 
-0.0279571 0.410357 0.150423 146 120 36 255 
-0.221689 0.373594 0.0496135 178 137 75 255 
-0.142904 0.504027 -0.00297445 108 89 38 255 
-0.191498 0.433229 0.0681449 149 131 60 255 
-0.0629271 0.618581 0.041591 186 166 26 255 
-0.136456 0.544145 0.0355457 175 163 96 255 
-0.0806603 0.425319 0.1499 208 185 49 255 
-0.0990121 0.541089 0.12916 163 156 31 255 
0.0733831 0.501966 0.125851 188 158 69 255 
-0.128168 0.501983 0.124006 204 196 141 255 
-0.120708 0.574714 0.0535134 210 189 34 255 
-0.114227 0.576012 -0.0521074 161 147 63 255 
-0.141404 0.504594 0.0367794 125 110 41 255 
0.0127846 0.424047 0.171666 202 182 30 255 
-0.144612 0.546407 0.001237 121 106 39 255 
-0.144258 0.510355 -0.0390006 127 115 78 255 
-0.110991 0.582889 0.00154859 208 195 44 255 
-0.0670919 0.502355 0.131018 226 208 50 255 
-0.175897 0.352527 0.159259 157 127 68 255 
-0.122375 0.505346 -0.0876218 144 117 47 255 
-0.0283494 0.425979 0.172293 167 166 76 255 
0.0927715 0.392445 0.10637 160 127 86 255 
-0.12167 0.431186 0.111659 200 178 47 255 
-0.208305 0.393452 0.0478026 107 84 37 255 
-0.0453208 0.659626 -0.0858286 217 208 120 255 
-0.19029 0.390152 0.13961 121 111 79 255 
-0.0997846 0.54613 -0.106602 147 138 119 255 
-0.0639517 0.615221 -0.103465 171 157 91 255 
-0.0830547 0.545048 -0.122995 106 89 37 255 
-0.145171 0.433518 5.97537e-05 103 98 61 255 
-0.0691628 0.579954 0.0809871 203 188 22 255 
-0.133912 0.536981 0.0889308 184 178 87 255 
-0.0803747 0.469423 -0.122655 174 183 163 255 
-0.0186569 0.653699 -0.00944704 155 166 231 255 
-0.128877 0.471234 0.0145706 88 73 33 255 
-0.102222 0.463712 0.129865 244 221 58 255 
-0.144307 0.502611 0.0351428 202 180 76 255 
-0.0652229 0.47029 -0.0677137 148 159 142 255 
-0.126596 0.469879 -0.0156114 110 97 63 255 
-0.110953 0.469848 0.00256541 126 118 83 255 
-0.10511 0.46515 -0.070019 135 140 105 255 
-0.118908 0.575851 0.0211825 182 169 62 255 
-0.14178 0.507832 0.0735886 104 91 33 255 
-0.0313487 0.618789 -0.101591 164 155 112 255 
-0.0203426 0.358106 0.0273944 86 101 77 255 
-0.0779865 0.349393 0.0427903 154 177 89 255 
0.145075 0.348137 0.019852 231 149 120 255 
-0.150794 0.471157 0.0724802 96 75 15 255 
-0.0751041 0.393084 0.00329128 70 75 67 255 
-0.113254 0.393491 0.148281 151 140 55 255 
0.0578965 0.39259 -0.0376277 112 151 111 255 
-0.188817 0.432126 0.0307782 194 169 38 255 
-0.0425117 0.35039 0.0426182 87 96 80 255 
-0.00952005 0.427368 -0.0819084 103 107 70 255 
-0.108358 0.426292 -0.0326238 90 71 34 255 
-0.157183 0.469471 0.0151291 121 98 36 255 
-0.130662 0.428088 -0.0194135 90 77 28 255 
-0.00366992 0.675099 -0.0529676 204 208 153 255 
0.0537494 0.426543 0.178315 183 161 25 255 
0.0349953 0.394539 -0.0266114 72 80 38 255 
-0.164091 0.434805 0.0170556 109 130 94 255 
0.0373949 0.424386 0.157899 84 90 76 255 
-0.0931222 0.54284 0.128796 95 85 2 255 
-0.161719 0.431537 0.0906866 179 154 60 255 
0.11349 0.347629 0.0555831 88 60 49 255 
-0.100526 0.584056 -0.111064 126 111 43 255 
0.0562806 0.537434 -0.0064775 254 223 100 255 
0.0533322 0.469292 -0.00199986 109 76 42 255 
0.0748429 0.468053 -0.0267829 171 149 123 255 
0.074403 0.461652 0.0156322 155 97 65 255 
-0.0854229 0.429428 -0.0529285 145 172 135 255 
-0.0801539 0.62026 -0.0127023 225 216 34 255 
-0.0577021 0.388041 0.0243676 127 99 52 255 
-0.180698 0.424247 0.0873463 115 94 28 255 
-0.0194307 0.390275 -0.013126 90 86 71 255 
0.0419727 0.39524 -0.0615457 128 155 112 255 
-0.0368727 0.389169 0.00102806 71 73 64 255 
-0.0813244 0.58015 -0.122318 101 90 27 255 
-0.0210966 0.422998 0.169042 162 146 26 255 
-0.129546 0.505582 -0.0750372 183 153 64 255 
-0.220432 0.397209 0.101994 233 214 94 255 
-0.111912 0.579742 -0.0915778 170 149 54 255 
-0.183919 0.389411 0.141395 133 126 71 255 
-0.131003 0.540789 -0.0687671 138 127 84 255 
-0.197897 0.429947 0.0497066 133 116 86 255 
-0.193823 0.428666 0.0131357 105 87 37 255 
-0.130096 0.393526 0.0182652 89 83 51 255 
-0.113644 0.470118 -0.0545475 92 74 34 255 
-0.0710922 0.620011 -0.0871973 182 159 45 255 
-0.095971 0.505759 -0.107779 151 121 57 255 
-0.0905331 0.46989 -0.108069 186 202 182 255 
-0.174557 0.359878 0.0339825 105 116 66 255 
0.010671 0.688908 -0.0245388 179 189 240 255 
-0.120602 0.575459 0.0924716 133 122 33 255 
-0.138388 0.464249 0.0370011 130 124 80 255 
-0.17645 0.433882 0.0711567 126 108 28 255 
-0.123648 0.463499 0.0176181 113 94 35 255 
-0.00469577 0.655402 0.0281348 156 169 236 255 
-0.125236 0.463853 0.127865 157 144 31 255 
-0.0726471 0.581544 -0.121091 118 100 29 255 
-0.0395462 0.659038 -0.086238 163 172 236 255 
-0.0546776 0.616463 -0.100043 176 156 44 255 
-0.141504 0.356399 0.0343227 122 117 70 255 
-0.109231 0.548784 -0.0897772 190 199 240 255 
-0.112412 0.579045 -0.0159007 125 115 28 255 
-0.0748308 0.464155 -0.123154 157 177 152 255 
-0.092748 0.46508 0.129694 95 83 33 255 
-0.219791 0.388694 0.135781 101 79 23 255 
-0.101028 0.464169 0.000860602 78 72 40 255 
-0.113979 0.50936 -0.0921359 145 119 42 255 
0.0488256 0.392006 -0.0576122 150 130 103 255 
-0.0651487 0.391959 0.00526908 116 148 107 255 
-0.10298 0.396127 0.000347644 117 153 103 255 
0.0301052 0.393419 -0.0442087 106 82 34 255 
0.0652647 0.391949 -0.0408336 132 133 91 255 
-0.00653273 0.427137 -0.0839092 121 158 110 255 
-0.0781075 0.510077 -0.0865217 124 106 59 255 
-0.0600452 0.469854 -0.0703171 95 78 57 255 
0.0634488 0.536667 -0.00609121 181 143 72 255 
0.0647352 0.461221 -0.00654635 160 118 83 255 
-0.139689 0.389287 0.0313621 138 107 49 255 
-0.0646132 0.352844 0.0392651 84 99 74 255 
-0.0919042 0.54755 -0.103976 125 118 60 255 
-0.114808 0.43031 -0.056713 89 75 30 255 
-0.118432 0.39469 0.0174915 154 139 57 255 
-0.0274611 0.529942 -0.0689517 202 194 179 255 
0.00451446 0.499253 -0.0337872 136 114 54 255 
-0.0562421 0.63535 -0.039966 169 173 209 255 
-0.221412 0.384724 0.121924 156 137 61 255 
0.0572895 0.598609 -0.00829396 227 196 73 255 
-0.0161669 0.460884 -0.0211509 71 68 64 255 
-0.105381 0.349943 0.0419956 166 191 152 255 
0.0290177 0.39447 -0.00963867 109 160 88 255 
0.0457991 0.519559 -0.00303 163 131 69 255 
-0.0204314 0.538156 -0.0576079 160 137 40 255 
-0.0079354 0.395866 -0.00662479 71 75 63 255 
-0.0201387 0.463142 -0.0660434 148 118 55 255 
0.0211905 0.50494 -0.0428604 94 75 25 255 
-0.159614 0.463401 0.0545544 157 182 150 255 
-0.20009 0.369911 0.141615 111 106 64 255 
0.0146399 0.657026 -0.0609006 168 155 82 255 
-0.110956 0.350658 0.0388127 147 151 109 255 
-0.194084 0.389577 0.0485301 161 132 63 255 
0.0377675 0.614559 -0.0603156 157 158 140 255 
-0.00125587 0.574896 -0.084056 94 74 16 255 
0.071071 0.49953 0.0189576 188 169 112 255 
-0.0443686 0.414436 0.150298 141 123 27 255 
-0.085683 0.464861 -0.0552413 91 72 38 255 
-0.0536796 0.66123 -0.103574 180 180 146 255 
0.0514607 0.38293 0.099586 232 182 84 255 
0.0561709 0.342977 0.0285188 108 151 104 255 
0.00604725 0.653418 -0.0657652 86 80 28 255 
-0.224891 0.37104 0.120062 144 122 63 255 
0.0129082 0.577257 -0.0630375 90 78 28 255 
0.0188715 0.649191 -0.0528624 96 79 30 255 
0.0339409 0.519333 -0.024606 74 74 69 255 
-0.00510126 0.53619 -0.0488548 112 98 40 255 
0.0883523 0.372426 0.0892071 187 126 86 255 
-0.0127767 0.461437 -0.0433074 172 193 162 255 
-0.0779182 0.493797 -0.0918282 253 253 247 255 
0.00969708 0.455213 -0.0637926 157 123 59 255 
-0.112346 0.574404 -0.0751048 109 95 33 255 
0.0619292 0.517336 0.124746 126 110 20 255 
-0.000733495 0.682167 -0.0606194 169 171 176 255 
-0.0822967 0.612634 0.00652227 168 152 34 255 
-0.0278205 0.445511 0.153897 131 116 38 255 
0.0682222 0.519872 0.104226 213 185 61 255 
-0.0255764 0.469155 -0.0265856 72 71 65 255 
0.0263285 0.4685 0.0289338 115 102 62 255 
-0.0908384 0.601727 0.00730863 173 155 29 255 
-0.0398538 0.642591 -0.0288384 158 161 167 255 
-0.175188 0.413893 0.0961351 174 144 60 255 
0.0509558 0.456454 0.0301054 179 95 76 255 
-0.203013 0.379781 0.13801 146 118 51 255 
0.0398796 0.587776 -0.0440555 135 112 38 255 
0.0166446 0.584069 0.048334 239 232 50 255 
0.074518 0.552795 0.0315683 225 179 79 255 
0.00420445 0.392711 0.154085 167 163 67 255 
-0.0675634 0.35793 0.152399 88 75 12 255 
0.0753126 0.403724 0.105584 97 113 88 255 
0.00189412 0.628122 -0.0123316 204 202 97 255 
0.0691849 0.544742 0.069357 214 179 70 255 
-0.0266871 0.51062 0.113212 255 236 25 255 
0.0271317 0.43892 0.174153 200 184 28 255 
-0.0630966 0.399974 0.149017 179 167 52 255 
0.0248645 0.398266 0.13802 116 146 107 255 
-0.009556 0.554459 0.0910945 232 220 43 255 
0.0374597 0.627968 -0.0420832 205 182 58 255 
-0.0379167 0.589318 0.0598058 201 195 94 255 
0.12309 0.397599 0.018004 156 109 83 255 
0.0412553 0.524697 0.112901 183 163 72 255 
0.00541985 0.366272 0.106843 86 83 75 255 
0.060246 0.593824 -0.0139774 244 204 87 255 
0.0928637 0.406869 -0.0159751 124 171 109 255 
0.0542992 0.568453 0.0458451 197 166 52 255 
-0.0948345 0.569876 0.105351 222 207 20 255 
0.056759 0.53441 0.00864235 121 102 50 255 
-0.0226617 0.53145 0.111618 233 216 30 255 
0.0057559 0.491117 -0.0107772 79 79 69 255 
0.0574279 0.589627 -0.0192514 218 181 79 255 
-0.01695 0.477849 -0.0310094 67 69 59 255 
0.084268 0.431822 0.0863566 206 148 91 255 
0.0123485 0.55241 0.0850688 246 238 46 255 
-0.154036 0.403507 0.123101 129 115 38 255 
0.0128449 0.359395 0.0833463 140 136 80 255 
0.0480812 0.398784 0.123457 138 146 98 255 
-0.0134324 0.541817 -0.0499466 175 149 47 255 
0.0494561 0.426032 0.0295188 93 97 81 255 
0.00759101 0.51139 0.121623 207 187 25 255 
-0.042906 0.469096 0.133977 190 177 65 255 
-0.0825524 0.440375 0.132016 95 78 7 255 
0.0634173 0.397881 0.106268 108 115 86 255 
0.0904113 0.515736 0.090971 140 112 43 255 
0.108675 0.402411 -0.00507316 159 116 90 255 
0.0758702 0.531655 0.0269673 113 92 48 255 
-0.0411653 0.55046 0.097201 240 225 82 255 
0.121206 0.398676 0.0539724 112 104 75 255 
0.0703584 0.586145 0.0326094 251 223 91 255 
-0.205279 0.41365 0.0641695 133 119 59 255 
0.100629 0.405949 -0.0133947 125 167 115 255 
0.011422 0.369832 0.119495 111 86 4 255 
0.089853 0.47737 0.0520865 179 161 136 255 
0.0082112 0.470061 0.151982 207 199 127 255 
0.0994124 0.357866 0.0715542 162 149 93 255 
-0.0326759 0.554616 -0.0832561 114 101 39 255 
0.0692543 0.510777 0.0363492 210 166 73 255 
0.0760069 0.566809 0.0304407 145 119 46 255 
-0.0549198 0.490236 0.108419 131 121 75 255 
-0.026351 0.635466 -0.00440803 197 200 130 255 
-0.0103717 0.358877 0.0979097 159 139 59 255 
0.0487897 0.489242 0.154558 195 183 41 255 
-0.0794699 0.454338 0.128092 141 132 51 255 
0.0773667 0.561545 0.0405249 161 132 61 255 
0.00836551 0.627825 -0.0790395 189 172 60 255 
-0.0278138 0.357771 0.112064 121 109 64 255 
-0.0650256 0.409413 0.153392 225 198 45 255 
-0.0964519 0.417925 0.140967 161 142 42 255 
-0.0167106 0.60202 0.0402842 203 185 71 255 
-0.0185009 0.572622 0.0728693 191 179 90 255 
0.0407706 0.527421 -0.00966987 119 101 55 255 
0.0614682 0.419935 -0.0247177 146 141 92 255 
-0.0306991 0.537346 -0.0690094 200 208 239 255 
-0.0661737 0.477402 -0.123895 188 173 142 255 
-0.0543788 0.570842 0.0931971 148 139 21 255 
0.0294472 0.606737 -0.020526 235 203 56 255 
-0.106377 0.484076 -0.0690554 103 86 44 255 
0.108011 0.45134 0.0663679 242 181 103 255 
-0.131073 0.411428 -0.013943 124 98 49 255 
-0.00958979 0.549373 0.100383 224 220 152 255 
-0.135316 0.520752 0.086421 179 163 59 255 
0.0293021 0.450568 0.171582 173 155 38 255 
0.0250908 0.640493 -0.0288635 199 179 45 255 
-0.0141786 0.564399 -0.0820646 152 129 41 255 
0.0777613 0.412984 -0.0116669 137 179 122 255 
0.0735061 0.491089 0.0463558 125 106 45 255 
0.0907329 0.48941 0.100649 140 112 34 255 
-0.142599 0.489324 0.125157 177 161 44 255 
0.0175189 0.47715 0.0127221 120 120 109 255 
0.121984 0.366367 0.0361748 146 91 77 255 
0.0415993 0.606471 -0.0450928 175 155 50 255 
-0.00777948 0.56768 -0.0636264 107 93 40 255 
-0.00734204 0.454892 -0.0697942 129 112 69 255 
0.0218584 0.45578 0.00612018 135 116 93 255 
0.0193952 0.549001 -0.0220405 94 83 24 255 
-0.0118263 0.514036 -0.06546 106 88 38 255 
-0.0660675 0.478147 -0.0849374 109 94 62 255 
-0.0641536 0.435433 0.148102 171 164 76 255 
-0.219668 0.377816 0.0562858 150 122 53 255 
0.0243232 0.63026 -0.0644098 121 109 45 255 
-0.0446507 0.477528 -0.0671699 88 75 39 255 
-0.0355802 0.596007 0.062931 238 223 99 255 
-0.102321 0.598262 -0.0510766 205 179 49 255 
-0.0944611 0.611536 -0.0504195 115 99 24 255 
0.0112838 0.601849 0.0303019 175 180 226 255 
-0.0284479 0.664907 -0.0855231 208 199 152 255 
-0.0609632 0.659657 -0.104005 233 206 45 255 
-0.119948 0.569071 0.0743746 153 135 19 255 
-0.00517601 0.449672 0.166764 127 118 41 255 
0.0567966 0.421369 0.0096592 124 161 116 255 
0.0356025 0.469741 0.032355 93 77 32 255 
0.0160335 0.374102 0.11838 131 183 115 255 
0.0282445 0.575592 0.0531661 193 168 55 255 
-0.0287073 0.58092 0.0688329 201 193 101 255 
-0.0485705 0.575339 0.0834993 192 188 138 255 
-0.0283716 0.541678 0.106421 177 158 32 255 
0.0384849 0.513432 -0.00714406 195 157 65 255 
0.0161281 0.507716 -0.0402119 153 124 82 255 
0.0557351 0.441485 -0.0189115 123 90 40 255 
-0.0139734 0.461211 -0.0347245 149 113 97 255 
-0.0484643 0.547753 -0.105161 190 186 175 255 
0.0409434 0.434722 -0.0458067 98 86 48 255 
-0.0648326 0.556989 0.113298 118 110 24 255 
-0.139421 0.398822 0.142586 192 172 61 255 
0.0495548 0.381047 0.0929589 137 139 127 255 
-0.0198779 0.590271 0.0478458 227 201 39 255 
-0.105624 0.402085 0.148847 180 168 51 255 
-0.113163 0.585521 0.0577177 162 143 28 255 
-0.146575 0.55076 0.0149008 189 165 44 255 
-0.171241 0.438 0.0722358 146 144 68 255 
-0.231534 0.360952 0.153417 244 188 52 255 
-0.0547761 0.630831 0.00907627 227 202 29 255 
-0.0124791 0.624039 0.00915512 159 149 95 255 
-0.111463 0.586214 0.0938793 208 131 77 255 
-0.143181 0.551845 -0.0202267 185 163 50 255 
-0.0640063 0.516849 0.114122 179 168 33 255 
-0.142961 0.510263 0.0173166 138 120 44 255 
-0.0265434 0.398325 0.153187 144 139 40 255 
-0.0532579 0.634587 -0.0289958 152 145 189 255 
-0.139579 0.524796 -0.0586923 100 85 33 255 
-0.204307 0.410259 0.0295542 183 153 56 255 
-0.0358111 0.621182 0.0236735 203 205 174 255 
-0.210277 0.366355 0.139547 138 134 61 255 
0.0469821 0.53194 0.0938693 175 153 34 255 
0.00377154 0.492512 -0.0397089 131 106 59 255 
0.00495809 0.415859 0.161721 209 166 71 255 
-0.0157173 0.661298 -0.0300699 146 144 98 255 
-0.210728 0.403257 0.101913 137 147 85 255 
0.0506256 0.362527 0.0826167 139 187 119 255 
-0.0485278 0.358984 0.135449 252 214 72 255 
-0.100645 0.476044 0.112129 254 239 31 255 
-0.106136 0.593966 -0.05136 199 175 51 255 
-0.173462 0.403796 0.108323 127 135 95 255 
-0.227428 0.364225 0.120529 150 136 69 255 
-0.129989 0.557597 0.035407 144 124 30 255 
-0.119114 0.514952 0.129051 177 167 30 255 
-0.193807 0.400707 0.120841 142 117 56 255 
0.0328084 0.587694 0.0334293 211 181 48 255 
-0.152841 0.477724 0.0897815 91 76 19 255 
-0.243352 0.366875 0.0966108 115 86 38 255 
0.0398734 0.616568 -0.0572807 181 170 114 255 
-0.0293692 0.660998 -0.0452569 180 189 240 255 
-0.0114661 0.477522 0.135146 179 160 87 255 
0.0819877 0.537555 0.0396642 157 130 60 255 
0.00479734 0.54054 0.106807 129 108 32 255 
0.0782254 0.510917 0.124826 211 200 163 255 
-0.0731211 0.629005 -0.0143295 221 200 45 255 
-0.105495 0.585451 -0.017573 198 185 70 255 
-0.0819014 0.627398 -0.0674858 168 175 219 255 
-0.0583155 0.622852 0.0404761 227 197 34 255 
-0.141518 0.517828 -0.0560311 154 143 104 255 
-0.109769 0.586606 0.0225902 185 180 84 255 
