ply
format ascii 1.0
comment VCGLIB generated
element vertex 1580
property float x
property float y
property float z
element face 0
property list uchar int vertex_indices
end_header
-0.209512 0.167889 0.0741516 
-0.2069 0.171768 0.0754548 
-0.206104 0.167563 0.0822696 
-0.211005 0.157169 0.0835399 
-0.209947 0.162282 0.0798453 
-0.207461 0.160306 0.0878419 
-0.201801 0.17367 0.0847546 
-0.200856 0.170538 0.0906307 
-0.204861 0.166576 0.0862679 
-0.201304 0.167321 0.0934471 
-0.204849 0.164185 0.0891451 
-0.203294 0.16295 0.094143 
-0.198863 0.139183 0.0463007 
-0.199069 0.139136 0.0395068 
-0.199407 0.133343 0.0334506 
-0.199232 0.137384 0.0356518 
-0.199285 0.131939 0.0387305 
-0.199151 0.132827 0.0423564 
-0.199463 0.121891 0.0417197 
-0.199411 0.127336 0.0386411 
-0.199215 0.125091 0.0470888 
-0.198777 0.13577 0.0521783 
-0.199054 0.131704 0.0465802 
-0.198793 0.132334 0.0546591 
-0.199041 0.129133 0.04929 
-0.198919 0.12773 0.0545698 
-0.242738 0.164535 0.0379281 
-0.244931 0.159548 0.0407898 
-0.243226 0.162829 0.0346058 
-0.244527 0.159356 0.0328712 
-0.245135 0.158568 0.0376243 
-0.248589 0.15052 0.0408096 
-0.24668 0.154781 0.037791 
-0.247653 0.153519 0.0453961 
-0.242899 0.16504 0.0439456 
-0.245418 0.158918 0.0445925 
-0.244199 0.162642 0.0493358 
-0.246352 0.156992 0.0471308 
-0.245417 0.159991 0.0517174 
-0.246961 0.156204 0.051884 
-0.236955 0.198249 0.0765498 
-0.242317 0.194318 0.0743703 
-0.239009 0.198491 0.070942 
-0.244632 0.195005 0.0669214 
-0.241312 0.197517 0.0680535 
-0.243983 0.193891 0.0715241 
-0.247042 0.190933 0.0722331 
-0.249713 0.187308 0.0757038 
-0.246003 0.189153 0.0795975 
-0.241798 0.193428 0.0780525 
-0.237451 0.195819 0.0819885 
-0.238975 0.19351 0.0846231 
-0.242684 0.191666 0.0807294 
-0.242035 0.190552 0.0853322 
-0.215029 0.163597 0.0904585 
-0.220353 0.163513 0.08742 
-0.221787 0.156627 0.0914536 
-0.224374 0.161578 0.0864483 
-0.225128 0.155639 0.0902082 
-0.228432 0.157147 0.0872197 
-0.219143 0.155421 0.0938443 
-0.22862 0.144664 0.0959346 
-0.227865 0.150604 0.0921748 
-0.222579 0.148192 0.0969563 
-0.212423 0.159894 0.0945923 
-0.212479 0.15615 0.0972067 
-0.21852 0.152623 0.096185 
-0.215216 0.151115 0.0991735 
-0.247925 0.200673 0.078285 
-0.253262 0.200988 0.075684 
-0.254571 0.195485 0.0804057 
-0.261245 0.196386 0.0766662 
-0.257259 0.199702 0.0751984 
-0.257903 0.19492 0.0795127 
-0.260554 0.191017 0.0821192 
-0.261198 0.186236 0.0864335 
-0.255207 0.188673 0.0866736 
-0.245243 0.19747 0.0825156 
-0.251898 0.194312 0.082683 
-0.245229 0.194425 0.0854459 
-0.25122 0.191988 0.0852058 
-0.247878 0.190524 0.0880523 
-0.237754 0.175776 0.042081 
-0.237965 0.171834 0.0462522 
-0.240156 0.173979 0.0402383 
-0.242322 0.170844 0.0403097 
-0.240026 0.17067 0.044238 
-0.234316 0.176836 0.0464523 
-0.236129 0.171695 0.049395 
-0.241273 0.167466 0.0458808 
-0.241143 0.164157 0.0498805 
-0.2376 0.167188 0.0521663 
-0.232244 0.175359 0.0515092 
-0.231891 0.173352 0.0543804 
-0.235435 0.170322 0.0520948 
-0.233139 0.170148 0.0560233 
-0.233313 0.139999 0.0830937 
-0.235599 0.137091 0.0787489 
-0.236134 0.132711 0.0838744 
-0.238995 0.129407 0.0778786 
-0.237304 0.133914 0.0771844 
-0.237558 0.130395 0.0820059 
-0.238675 0.126284 0.084351 
-0.234985 0.133501 0.0871762 
-0.238931 0.122765 0.0891725 
-0.236377 0.127864 0.0909547 
-0.232151 0.139461 0.0886543 
-0.232131 0.137468 0.0920425 
-0.234685 0.13237 0.0902604 
-0.233249 0.133357 0.0943877 
-0.231633 0.138342 0.0564387 
-0.235281 0.131239 0.0580379 
-0.23438 0.128965 0.0553905 
-0.231939 0.129074 0.0517207 
-0.231015 0.1349 0.0535685 
-0.237233 0.13115 0.0609737 
-0.239647 0.11716 0.0568326 
-0.236281 0.123095 0.0550105 
-0.240187 0.122921 0.0608822 
-0.233996 0.140551 0.0612879 
-0.23749 0.13808 0.0652461 
-0.239263 0.128746 0.06273 
-0.239803 0.134506 0.0667797 
-0.241704 0.128637 0.0663998 
-0.2443 0.192847 0.0779571 
-0.238937 0.195618 0.0752251 
-0.239701 0.192514 0.0730985 
-0.244426 0.190435 0.0758408 
-0.242508 0.188715 0.0723483 
-0.239961 0.199063 0.0794368 
-0.252726 0.185243 0.07923 
-0.248001 0.187323 0.0764877 
-0.245835 0.194223 0.0807511 
-0.251069 0.190074 0.0820757 
-0.243539 0.199744 0.0836072 
-0.246604 0.198702 0.0856716 
-0.248261 0.193872 0.082826 
-0.250179 0.19559 0.0863185 
-0.238732 0.194214 0.0613241 
-0.240519 0.192581 0.0589376 
-0.243664 0.190514 0.0583106 
-0.243876 0.191329 0.0624986 
-0.250463 0.188337 0.0671076 
-0.242726 0.192582 0.0649271 
-0.247106 0.189589 0.0635467 
-0.247443 0.190894 0.0702474 
-0.237709 0.195954 0.0662654 
-0.239237 0.196172 0.0713751 
-0.242895 0.193234 0.0682775 
-0.241277 0.195519 0.0740143 
-0.244297 0.192962 0.0708744 
-0.244507 0.193778 0.0750623 
-0.236311 0.136831 0.0640963 
-0.238543 0.133542 0.0630988 
-0.237279 0.128774 0.0670918 
-0.240048 0.128377 0.0639498 
-0.235236 0.131045 0.0683851 
-0.23302 0.131362 0.0708987 
-0.236412 0.118999 0.0731923 
-0.237676 0.123767 0.0691995 
-0.233245 0.124401 0.0742265 
-0.232606 0.13934 0.067275 
-0.229663 0.137781 0.0716369 
-0.228572 0.134967 0.0744097 
-0.231739 0.129566 0.0733755 
-0.22897 0.129961 0.0765175 
-0.237036 0.19708 0.0769809 
-0.240922 0.195335 0.0778653 
-0.23754 0.190494 0.0812601 
-0.240858 0.189641 0.0815986 
-0.244491 0.19119 0.0803434 
-0.242907 0.17918 0.0883122 
-0.242973 0.184875 0.0845788 
-0.237158 0.182397 0.0865872 
-0.231539 0.197004 0.0773955 
-0.228315 0.193363 0.0799935 
-0.234633 0.189255 0.0822642 
-0.227841 0.18976 0.0823841 
-0.233589 0.186544 0.084109 
-0.229956 0.184994 0.0853643 
-0.220438 0.173383 0.0916139 
-0.219567 0.168647 0.0951118 
-0.223685 0.172164 0.0920182 
-0.226151 0.169213 0.0937677 
-0.222468 0.168064 0.0951124 
-0.223461 0.164655 0.0973997 
-0.222245 0.160554 0.100494 
-0.217569 0.162816 0.0995514 
-0.215326 0.173276 0.0924203 
-0.211599 0.170624 0.0948414 
-0.216621 0.167727 0.0961877 
-0.210427 0.168026 0.0968592 
-0.215102 0.165766 0.0978019 
-0.21142 0.164617 0.0991466 
-0.242925 0.166823 0.0389506 
-0.245969 0.162096 0.0404256 
-0.246275 0.16299 0.0338474 
-0.244068 0.165782 0.0359007 
-0.246655 0.161667 0.0376347 
-0.2516 0.154231 0.0388306 
-0.249014 0.158346 0.0370965 
-0.249621 0.15623 0.0431564 
-0.242467 0.166458 0.0440139 
-0.246272 0.161039 0.0434555 
-0.243835 0.163649 0.0480405 
-0.245433 0.161022 0.0495354 
-0.247413 0.159023 0.0452097 
-0.247792 0.1577 0.0489971 
-0.253527 0.191625 0.0548351 
-0.258131 0.184339 0.0499576 
-0.254864 0.188881 0.0518781 
-0.259427 0.184378 0.0537171 
-0.258794 0.186215 0.0564403 
-0.267774 0.175347 0.0551393 
-0.263211 0.17985 0.0533004 
-0.265286 0.179913 0.0593156 
-0.253671 0.193486 0.0598139 
-0.256637 0.191719 0.0638578 
-0.259831 0.186246 0.0594479 
-0.259531 0.189022 0.0654124 
-0.262019 0.184455 0.0612361 
-0.263316 0.184494 0.0649957 
-0.244125 0.156476 0.0397308 
-0.244685 0.1534 0.0371349 
-0.246819 0.148453 0.0357074 
-0.248318 0.148678 0.0393309 
-0.244951 0.158706 0.04436 
-0.248244 0.150773 0.0417861 
-0.251052 0.143821 0.0393528 
-0.254685 0.139098 0.0415487 
-0.25345 0.144181 0.0451503 
-0.249444 0.150954 0.0446849 
-0.247723 0.157015 0.0484271 
-0.251317 0.149127 0.0465779 
-0.250083 0.154209 0.0501795 
-0.252817 0.149352 0.0502014 
-0.237048 0.196923 0.0692674 
-0.239843 0.194635 0.0659598 
-0.241958 0.193442 0.0708828 
-0.242326 0.192752 0.0650472 
-0.245324 0.190641 0.0662255 
-0.243899 0.191928 0.0695997 
-0.247898 0.18951 0.0766803 
-0.246325 0.190333 0.0721277 
-0.240818 0.194473 0.0735822 
-0.244045 0.192394 0.0775264 
-0.236423 0.197727 0.0740577 
-0.237195 0.197388 0.0771941 
-0.241048 0.194504 0.076348 
-0.239622 0.195793 0.0797221 
-0.24632 0.18464 0.0490762 
-0.248187 0.18199 0.0475705 
-0.250791 0.178203 0.0480257 
-0.250156 0.178991 0.0517313 
-0.244567 0.187037 0.0530446 
-0.248276 0.181546 0.0564408 
-0.254473 0.172521 0.0578296 
-0.248784 0.180916 0.0534763 
-0.252505 0.17552 0.0536687 
-0.251488 0.17678 0.059598 
-0.244796 0.186531 0.0579699 
-0.2459 0.184826 0.0609111 
-0.248885 0.180567 0.0591428 
-0.248249 0.181355 0.0628485 
-0.232067 0.193426 0.0780438 
-0.235221 0.190581 0.077284 
-0.238043 0.18695 0.0823207 
-0.239396 0.186332 0.0788189 
-0.228882 0.195817 0.081352 
-0.234587 0.189464 0.0863292 
-0.244498 0.179317 0.0902932 
-0.23567 0.18897 0.0835278 
-0.241676 0.182949 0.0852563 
-0.239512 0.183937 0.0908593 
-0.22882 0.194907 0.0864483 
-0.230351 0.192803 0.0898906 
-0.235337 0.188184 0.0893244 
-0.233984 0.188802 0.0928262 
-0.235425 0.197826 0.075351 
-0.237154 0.196982 0.0708038 
-0.239761 0.195634 0.0685083 
-0.244126 0.193265 0.0714705 
-0.244115 0.193334 0.0676994 
-0.242398 0.194095 0.076772 
-0.24239 0.194149 0.0737551 
-0.252849 0.188567 0.0751325 
-0.248484 0.190936 0.0721702 
-0.248502 0.190826 0.0782041 
-0.23718 0.196817 0.0798544 
-0.244147 0.193127 0.0790128 
-0.2398 0.195387 0.0820844 
-0.244159 0.193058 0.082784 
-0.227665 0.192695 0.0818938 
-0.229972 0.191614 0.0800449 
-0.23161 0.18846 0.0831844 
-0.232837 0.189211 0.0797284 
-0.225145 0.192814 0.0858912 
-0.229827 0.18903 0.0851083 
-0.228845 0.188429 0.0878731 
-0.235622 0.182603 0.0873899 
-0.233984 0.185758 0.0842503 
-0.232021 0.184555 0.0897801 
-0.224721 0.190892 0.0901884 
-0.225557 0.18891 0.0924868 
-0.229157 0.186957 0.0900966 
-0.227931 0.186206 0.0935527 
-0.251154 0.198861 0.067405 
-0.254446 0.197435 0.0660995 
-0.25641 0.192674 0.0690946 
-0.258366 0.193999 0.0662219 
-0.252258 0.1923 0.0728377 
-0.253824 0.19336 0.0705396 
-0.259548 0.188707 0.0703661 
-0.261512 0.183946 0.0733612 
-0.256417 0.186588 0.0749625 
-0.247394 0.198752 0.0705737 
-0.246458 0.195682 0.0742997 
-0.247401 0.192667 0.0764414 
-0.252497 0.190024 0.0748402 
-0.25054 0.1887 0.0777129 
-0.220919 0.15131 0.0833492 
-0.225447 0.143179 0.0873173 
-0.223685 0.148304 0.0845362 
-0.221887 0.143035 0.0883206 
-0.219332 0.14501 0.0877298 
-0.220428 0.132582 0.0952874 
-0.222225 0.137852 0.091503 
-0.216532 0.13762 0.0931082 
-0.216229 0.153198 0.0833604 
-0.212378 0.150963 0.085757 
-0.216485 0.144894 0.0885324 
-0.210872 0.147784 0.0881479 
-0.21477 0.142745 0.090327 
-0.21121 0.142602 0.0913303 
-0.248322 0.134818 0.0561946 
-0.247434 0.13034 0.0600624 
-0.250103 0.132066 0.0552348 
-0.251292 0.127889 0.0559501 
-0.249067 0.128402 0.0588438 
-0.245654 0.13075 0.0623775 
-0.249365 0.12443 0.0607166 
-0.248328 0.120766 0.0643256 
-0.245804 0.125251 0.0653466 
-0.245354 0.137064 0.0591494 
-0.242981 0.13605 0.0631395 
-0.242093 0.133913 0.0656522 
-0.244617 0.129428 0.0646313 
-0.242391 0.129941 0.067525 
-0.223804 0.160264 0.0966578 
-0.225846 0.158297 0.0929379 
-0.227208 0.155832 0.0914 
-0.228345 0.15205 0.0915312 
-0.226927 0.152456 0.0948993 
-0.225736 0.15418 0.0965982 
-0.227217 0.145459 0.0998769 
-0.227497 0.148836 0.0963777 
-0.224602 0.154504 0.0992928 
-0.22523 0.149485 0.101767 
-0.222445 0.15927 0.101021 
-0.222107 0.157293 0.103526 
-0.224094 0.153267 0.101636 
-0.222677 0.153673 0.105004 
-0.229989 0.138711 0.0591914 
-0.229798 0.135651 0.0565147 
-0.231229 0.130492 0.0544142 
-0.233412 0.130418 0.0573649 
-0.231864 0.140693 0.0633365 
-0.233975 0.132444 0.0597396 
-0.239328 0.119995 0.0572949 
-0.235715 0.125229 0.0564447 
-0.235723 0.132384 0.0621002 
-0.239209 0.125111 0.0611659 
-0.235231 0.138534 0.0662732 
-0.237661 0.135386 0.0671375 
-0.23778 0.130271 0.0632665 
-0.239963 0.130197 0.0662171 
-0.233036 0.140099 0.0635392 
-0.23116 0.138117 0.0593952 
-0.235147 0.13185 0.0599406 
-0.230968 0.135057 0.0567184 
-0.232396 0.129898 0.0546169 
-0.234582 0.129825 0.0575663 
-0.236895 0.131791 0.0623001 
-0.236884 0.124635 0.0566445 
-0.240499 0.119403 0.0574922 
-0.240382 0.124518 0.0613635 
-0.236405 0.137941 0.0664739 
-0.238836 0.134792 0.0673365 
-0.238953 0.129678 0.0634651 
-0.241139 0.129604 0.0664146 
-0.225352 0.159835 0.097825 
-0.227395 0.157868 0.0941055 
-0.228757 0.155403 0.0925679 
-0.229894 0.15162 0.0926994 
-0.228477 0.152027 0.0960674 
-0.227285 0.153751 0.097766 
-0.229047 0.148407 0.0975461 
-0.228766 0.14503 0.101046 
-0.226779 0.149056 0.102935 
-0.226151 0.154075 0.10046 
-0.223992 0.158841 0.102189 
-0.223654 0.156864 0.104693 
-0.225642 0.152839 0.102803 
-0.224224 0.153244 0.106171 
-0.226503 0.145258 0.0531924 
-0.228285 0.142506 0.052233 
-0.227246 0.138841 0.0558418 
-0.229473 0.138329 0.0529485 
-0.225614 0.140779 0.05706 
-0.227545 0.134869 0.0577146 
-0.226508 0.131205 0.0613234 
-0.223984 0.13569 0.0623437 
-0.223535 0.147504 0.0561466 
-0.223833 0.141189 0.0593746 
-0.221161 0.146489 0.0601361 
-0.222795 0.139867 0.0616282 
-0.220272 0.144352 0.0626486 
-0.220569 0.140381 0.0645214 
-0.240316 0.142794 0.0953663 
-0.244847 0.134665 0.0993346 
-0.243082 0.13979 0.0965531 
-0.241288 0.134519 0.100339 
-0.235885 0.136377 0.100551 
-0.238731 0.136493 0.099748 
-0.241628 0.129338 0.103522 
-0.239833 0.124067 0.107307 
-0.235934 0.129104 0.105128 
-0.235625 0.14468 0.0953782 
-0.231775 0.142444 0.0977758 
-0.23417 0.134228 0.102347 
-0.230271 0.139265 0.100168 
-0.230611 0.134083 0.10335 
-0.233999 0.195071 0.0628817 
-0.23729 0.193644 0.0615753 
-0.241211 0.190208 0.0616964 
-0.239254 0.188883 0.0645696 
-0.244357 0.180155 0.0688344 
-0.23667 0.189568 0.0660153 
-0.242393 0.184916 0.06584 
-0.239264 0.182796 0.0704373 
-0.23024 0.194961 0.0660514 
-0.229305 0.191891 0.0697776 
-0.235105 0.188508 0.0683138 
-0.235343 0.186233 0.0703161 
-0.230249 0.188875 0.071919 
-0.233387 0.184908 0.0731893 
-0.236518 0.195154 0.0924526 
-0.239038 0.195034 0.0884551 
-0.2412 0.19137 0.0916699 
-0.241345 0.193954 0.0866063 
-0.24421 0.191551 0.0862899 
-0.242983 0.1908 0.0897461 
-0.245358 0.188097 0.0908121 
-0.240219 0.19077 0.0944348 
-0.246995 0.184944 0.093952 
-0.243395 0.186895 0.0963421 
-0.236094 0.193232 0.0967499 
-0.23693 0.19125 0.0990485 
-0.240531 0.189297 0.0966585 
-0.239304 0.188546 0.100115 
-0.23883 0.19739 0.0714506 
-0.244064 0.194558 0.0744044 
-0.245792 0.193741 0.0683496 
-0.241438 0.196042 0.0691564 
-0.245802 0.193673 0.0721206 
-0.237098 0.198234 0.0759969 
-0.250159 0.191344 0.0728224 
-0.254523 0.188975 0.0757867 
-0.250174 0.191235 0.0788561 
-0.238852 0.197227 0.0805012 
-0.241471 0.195797 0.0827324 
-0.244071 0.194503 0.0774212 
-0.245819 0.193536 0.0796629 
-0.245828 0.193468 0.083434 
-0.237623 0.19787 0.0855389 
-0.240808 0.19548 0.0822297 
-0.246784 0.189003 0.0865045 
-0.248136 0.188386 0.0830022 
-0.243961 0.192634 0.0814686 
-0.253241 0.181369 0.0944748 
-0.244411 0.191023 0.0877122 
-0.250418 0.185 0.0894389 
-0.24333 0.191516 0.0905141 
-0.248255 0.185988 0.0950426 
-0.237563 0.196961 0.0906351 
-0.24408 0.190237 0.093509 
-0.239095 0.194856 0.0940769 
-0.242728 0.190854 0.0970113 
-0.241149 0.186738 0.0528245 
-0.242904 0.184341 0.0488565 
-0.244772 0.181691 0.0473512 
-0.247376 0.177906 0.047807 
-0.24674 0.178694 0.0515127 
-0.245368 0.180618 0.0532573 
-0.251057 0.172225 0.0576122 
-0.24909 0.175222 0.0534508 
-0.248071 0.176483 0.0593798 
-0.244858 0.181248 0.0562219 
-0.241376 0.186232 0.0577501 
-0.242481 0.184528 0.0606916 
-0.245467 0.180269 0.058924 
-0.244831 0.181057 0.0626296 
-0.239689 0.19752 0.0700046 
-0.242484 0.195232 0.0666967 
-0.246539 0.192525 0.0703363 
-0.247965 0.191237 0.066962 
-0.244967 0.193348 0.0657839 
-0.2446 0.194039 0.0716198 
-0.25054 0.190106 0.0774165 
-0.248967 0.19093 0.0728641 
-0.246687 0.19299 0.078263 
-0.243459 0.19507 0.0743191 
-0.239064 0.198323 0.074795 
-0.239836 0.197985 0.0779314 
-0.24369 0.195101 0.0770849 
-0.242264 0.196389 0.0804591 
-0.23653 0.158182 0.0399617 
-0.240718 0.150381 0.0395615 
-0.239219 0.150157 0.035938 
-0.237089 0.155105 0.0373658 
-0.240646 0.152476 0.0420167 
-0.247077 0.140797 0.0417787 
-0.243448 0.145521 0.039583 
-0.245847 0.145879 0.0453806 
-0.237358 0.160412 0.044591 
-0.24013 0.158719 0.048658 
-0.242487 0.155911 0.0504101 
-0.241846 0.152655 0.0449155 
-0.243718 0.150828 0.0468084 
-0.245217 0.151051 0.0504318 
-0.229683 0.188036 0.0516962 
-0.234951 0.182627 0.0533043 
-0.231023 0.185292 0.0487401 
-0.235585 0.18079 0.0505815 
-0.234291 0.18075 0.0468213 
-0.229826 0.189898 0.0566751 
-0.235987 0.182658 0.0563124 
-0.243933 0.171761 0.052008 
-0.239371 0.176263 0.0501667 
-0.241442 0.176326 0.0561829 
-0.23279 0.188131 0.0607205 
-0.235683 0.185434 0.0622765 
-0.238175 0.180869 0.0581017 
-0.239468 0.180907 0.0618618 
-0.242983 0.166844 0.0389501 
-0.244125 0.165803 0.0359003 
-0.246334 0.163011 0.033847 
-0.246713 0.161689 0.0376343 
-0.246027 0.162118 0.0404251 
-0.249073 0.158368 0.037096 
-0.251661 0.154255 0.0388302 
-0.249681 0.156253 0.0431558 
-0.242524 0.166479 0.0440133 
-0.243893 0.16367 0.0480398 
-0.245491 0.161043 0.0495347 
-0.246331 0.161061 0.043455 
-0.247472 0.159045 0.0452091 
-0.247851 0.157722 0.0489965 
-0.234368 0.171386 0.107428 
-0.239479 0.171494 0.106622 
-0.245193 0.167325 0.108777 
-0.242727 0.170275 0.107028 
-0.24151 0.166175 0.110121 
-0.238608 0.166758 0.11012 
-0.242502 0.162765 0.112409 
-0.241286 0.158665 0.115503 
-0.23661 0.160926 0.11456 
-0.230641 0.168735 0.109849 
-0.229469 0.166137 0.111868 
-0.235662 0.165838 0.111197 
-0.234144 0.163876 0.112811 
-0.230461 0.162727 0.114154 
-0.238574 0.198727 0.0803109 
-0.244071 0.198803 0.0798975 
-0.244574 0.192217 0.0841771 
-0.247891 0.191364 0.0845165 
-0.251524 0.192913 0.083262 
-0.247957 0.197059 0.0807829 
-0.241666 0.190978 0.0851807 
-0.250005 0.186599 0.0874974 
-0.249939 0.180904 0.0912309 
-0.24419 0.184121 0.0895045 
-0.235349 0.195086 0.0829083 
-0.234873 0.191484 0.0852989 
-0.240623 0.188266 0.0870253 
-0.236988 0.186718 0.0882798 
-0.230176 0.140617 0.0666786 
-0.233881 0.138106 0.0635026 
-0.232804 0.132322 0.0677912 
-0.234847 0.130049 0.0664994 
-0.237619 0.129653 0.0633592 
-0.236114 0.134818 0.0625068 
-0.233975 0.120276 0.0726003 
-0.235242 0.125044 0.0686077 
-0.230808 0.125678 0.0736318 
-0.230587 0.132639 0.0703033 
-0.22723 0.139058 0.0710388 
-0.226137 0.136245 0.0738111 
-0.229304 0.130843 0.0727795 
-0.226533 0.131239 0.0759196 
-0.241999 0.194905 0.0621311 
-0.245993 0.193273 0.0657351 
-0.243786 0.193274 0.0597451 
-0.247142 0.192022 0.0633068 
-0.246932 0.191205 0.0591188 
-0.240975 0.196647 0.0670721 
-0.24616 0.193926 0.0690855 
-0.253728 0.18903 0.0679175 
-0.250372 0.190281 0.0643558 
-0.250708 0.191587 0.0710566 
-0.242503 0.196865 0.0721823 
-0.244541 0.196212 0.0748219 
-0.247562 0.193655 0.0716829 
-0.247772 0.194471 0.0758709 
-0.229943 0.193421 0.0716824 
-0.235307 0.19065 0.0744144 
-0.235433 0.188236 0.0722982 
-0.233515 0.186518 0.0688057 
-0.230707 0.190317 0.0695559 
-0.230969 0.196865 0.0758941 
-0.239007 0.185126 0.072945 
-0.243732 0.183046 0.0756873 
-0.242076 0.187876 0.078533 
-0.234546 0.197547 0.0800644 
-0.236841 0.192026 0.0772084 
-0.237611 0.196505 0.0821289 
-0.239268 0.191675 0.0792832 
-0.241185 0.193393 0.0827758 
-0.230047 0.139141 0.0561757 
-0.233694 0.132036 0.0577767 
-0.229431 0.135697 0.0533054 
-0.232796 0.129762 0.0551291 
-0.230356 0.129872 0.0514583 
-0.23806 0.117958 0.0565739 
-0.234696 0.123893 0.0547503 
-0.238599 0.123718 0.0606234 
-0.232409 0.141348 0.0610257 
-0.235902 0.138878 0.0649853 
-0.238212 0.135304 0.06652 
-0.235645 0.131949 0.0607132 
-0.237674 0.129544 0.0624705 
-0.240113 0.129435 0.0661412 
-0.222424 0.145586 0.0778816 
-0.224708 0.142678 0.0735362 
-0.225242 0.138297 0.0786607 
-0.226665 0.13598 0.0767917 
-0.228102 0.134993 0.0726643 
-0.226411 0.1395 0.071971 
-0.224095 0.139086 0.0819626 
-0.228036 0.128349 0.0839566 
-0.227782 0.131868 0.0791359 
-0.225484 0.133448 0.0857398 
-0.221262 0.145047 0.0834421 
-0.221243 0.143054 0.0868298 
-0.223794 0.137955 0.0850466 
-0.222358 0.138942 0.089174 
-0.255947 0.175248 0.0419247 
-0.258349 0.173451 0.0400816 
-0.260514 0.170316 0.0401526 
-0.258219 0.170142 0.0440814 
-0.254322 0.171167 0.0492388 
-0.256159 0.171306 0.0460958 
-0.259336 0.163628 0.0497236 
-0.259466 0.166937 0.0457239 
-0.255793 0.166658 0.0520097 
-0.25251 0.176307 0.0462964 
-0.250438 0.174831 0.0513535 
-0.253627 0.169794 0.0519387 
-0.250084 0.172825 0.0542248 
-0.251332 0.16962 0.0558673 
-0.225486 0.195275 0.0705057 
-0.230823 0.195591 0.0679043 
-0.234818 0.194305 0.0674183 
-0.235464 0.189523 0.0717324 
-0.238805 0.190989 0.0688856 
-0.229459 0.188915 0.0749031 
-0.232131 0.190088 0.0726257 
-0.238114 0.185621 0.0743384 
-0.23876 0.180839 0.0786526 
-0.232769 0.183276 0.0788932 
-0.222803 0.192073 0.0747364 
-0.22279 0.189028 0.0776664 
-0.228782 0.186591 0.0774258 
-0.22544 0.185125 0.0802725 
-0.234054 0.15858 0.104846 
-0.240818 0.151616 0.105842 
-0.239377 0.158498 0.101806 
-0.247462 0.152138 0.101606 
-0.243399 0.156566 0.100833 
-0.24416 0.150629 0.104596 
-0.238177 0.150409 0.108234 
-0.247662 0.139662 0.110327 
-0.246902 0.145598 0.106564 
-0.241619 0.143184 0.111349 
-0.231453 0.154877 0.108982 
-0.231513 0.151135 0.111599 
-0.237556 0.147611 0.110576 
-0.234254 0.146104 0.113567 
-0.235165 0.197811 0.0758488 
-0.237219 0.198053 0.0702403 
-0.239521 0.19708 0.0673508 
-0.242192 0.193454 0.0708201 
-0.242839 0.194567 0.0662174 
-0.240527 0.19388 0.0736669 
-0.245251 0.190497 0.0715277 
-0.240009 0.192989 0.0773492 
-0.247923 0.18687 0.074997 
-0.244216 0.188715 0.0788922 
-0.235665 0.195381 0.081287 
-0.237189 0.193072 0.0839208 
-0.240897 0.191227 0.0800258 
-0.24025 0.190114 0.0846285 
-0.241596 0.165278 0.0439944 
-0.241434 0.164771 0.0379767 
-0.24363 0.159786 0.0408388 
-0.241923 0.163067 0.0346543 
-0.243225 0.159595 0.0329197 
-0.243833 0.158807 0.0376731 
-0.244116 0.159155 0.0446416 
-0.247289 0.15076 0.0408588 
-0.245378 0.15502 0.03784 
-0.246353 0.153759 0.0454455 
-0.242895 0.162881 0.049385 
-0.24505 0.157231 0.0471801 
-0.244114 0.16023 0.0517668 
-0.245659 0.156443 0.0519336 
-0.162449 0.12059 -0.0593498 
-0.159038 0.120281 -0.0666397 
-0.157104 0.118061 -0.0707071 
-0.156002 0.113189 -0.0729077 
-0.158654 0.111725 -0.0671849 
-0.160474 0.112913 -0.0633288 
-0.158613 0.106268 -0.0670965 
-0.160163 0.099932 -0.0635743 
-0.162856 0.103925 -0.05794 
-0.165403 0.116768 -0.0529049 
-0.166651 0.112792 -0.0501049 
-0.162596 0.111741 -0.0587505 
-0.163958 0.108797 -0.0557392 
-0.16661 0.107334 -0.0500165 
-0.187957 0.162644 -0.0294766 
-0.18866 0.160364 -0.0339769 
-0.190621 0.1556 -0.0365337 
-0.191611 0.154395 -0.0303544 
-0.18828 0.163201 -0.0215331 
-0.19134 0.155675 -0.0261184 
-0.19692 0.143181 -0.0268171 
-0.193969 0.14915 -0.0304396 
-0.192132 0.154712 -0.021175 
-0.195552 0.147223 -0.0205527 
-0.190331 0.159755 -0.0146463 
-0.19359 0.151987 -0.0179958 
-0.19222 0.156029 -0.0117314 
-0.194579 0.150783 -0.0118166 
-0.157617 0.12877 0.00528359 
-0.15783 0.11942 0.0107058 
-0.160516 0.116518 0.00775377 
-0.163534 0.116767 0.00226216 
-0.160741 0.124343 0.00250306 
-0.155416 0.11922 0.0150991 
-0.161877 0.101018 0.0149602 
-0.162101 0.108843 0.00970949 
-0.157273 0.108445 0.0184961 
-0.15312 0.131522 0.0115306 
-0.150375 0.128172 0.0184634 
-0.149878 0.123448 0.0222729 
-0.154481 0.116021 0.018737 
-0.151463 0.115772 0.0242286 
-0.207714 0.158131 -0.0307018 
-0.211371 0.154496 -0.0329731 
-0.214979 0.148299 -0.0324971 
-0.211869 0.148127 -0.0271703 
-0.208809 0.150516 -0.0245907 
-0.214234 0.141862 -0.0245635 
-0.214732 0.135494 -0.0187606 
-0.209259 0.141587 -0.0160405 
-0.202788 0.160416 -0.0249262 
-0.200251 0.157717 -0.0179175 
-0.206322 0.150378 -0.0203293 
-0.205651 0.147782 -0.0165166 
-0.200177 0.153875 -0.0137965 
-0.202541 0.147611 -0.0111898 
-0.161005 0.136511 -0.0609622 
-0.161356 0.131403 -0.0552674 
-0.161929 0.133128 -0.0640823 
-0.162121 0.128981 -0.058541 
-0.162869 0.128153 -0.0645085 
-0.160758 0.132066 -0.0504934 
-0.162956 0.120192 -0.051039 
-0.162763 0.124338 -0.0565802 
-0.161566 0.125665 -0.0470323 
-0.159791 0.13943 -0.054108 
-0.15921 0.1385 -0.0466401 
-0.159236 0.136113 -0.0425992 
-0.160625 0.13064 -0.046606 
-0.159878 0.131469 -0.0406384 
-0.158538 0.0933432 -0.00238646 
-0.158516 0.0829018 -0.00157708 
-0.157542 0.0887514 -0.00837043 
-0.157128 0.0840254 -0.0105977 
-0.15716 0.0775897 -0.00981061 
-0.158061 0.0793908 -0.00418669 
-0.159386 0.0690411 0.00526095 
-0.158453 0.0736756 -0.00115003 
-0.159895 0.0765575 0.00784822 
-0.159704 0.0930742 0.005127 
-0.160371 0.0905096 0.00964845 
-0.159237 0.0843427 0.00292207 
-0.159862 0.0829932 0.00706115 
-0.160763 0.0847943 0.012685 
-0.148798 0.094492 -0.0297811 
-0.142623 0.093194 -0.0343182 
-0.136047 0.0818367 -0.0388152 
-0.138797 0.0893973 -0.0370284 
-0.140579 0.0802958 -0.0354025 
-0.141422 0.0630175 -0.0341984 
-0.144035 0.0825188 -0.0329132 
-0.139641 0.0721189 -0.0358243 
-0.146892 0.0696536 -0.0303639 
-0.14766 0.0812862 -0.030183 
-0.153499 0.089496 -0.0261276 
-0.155111 0.0838502 -0.0247426 
-0.149642 0.0772141 -0.028577 
-0.154173 0.0756733 -0.0251643 
-0.193524 0.162529 -0.0195031 
-0.188571 0.158993 -0.0236819 
-0.192538 0.149757 -0.0246665 
-0.187783 0.148775 -0.0278126 
-0.186849 0.154867 -0.0261747 
-0.194637 0.152704 -0.0223753 
-0.201063 0.138947 -0.0235375 
-0.195374 0.144057 -0.0250459 
-0.202982 0.145629 -0.020012 
-0.198442 0.153489 -0.0198584 
-0.199983 0.16135 -0.0161312 
-0.203968 0.158401 -0.0148486 
-0.202048 0.151721 -0.0183742 
-0.206803 0.152703 -0.0152281 
-0.182912 0.160384 -0.0342472 
-0.186273 0.153689 -0.0377185 
-0.180765 0.157904 -0.0405632 
-0.180804 0.155063 -0.0440937 
-0.185755 0.151649 -0.0410628 
-0.183041 0.150916 -0.0460157 
-0.189078 0.147795 -0.0410036 
-0.194029 0.144381 -0.0379727 
-0.193422 0.148968 -0.033079 
-0.187282 0.159663 -0.0286763 
-0.188445 0.154276 -0.0337562 
-0.190579 0.157703 -0.0262633 
-0.191185 0.153115 -0.031157 
-0.193901 0.153849 -0.0262042 
-0.149584 0.0935011 -0.0215253 
-0.150971 0.0886186 -0.026796 
-0.151383 0.0834606 -0.0285515 
-0.150954 0.0763076 -0.0273773 
-0.149562 0.0781122 -0.0222519 
-0.149009 0.0819117 -0.0200566 
-0.146755 0.0663325 -0.012728 
-0.148576 0.0716811 -0.0190276 
-0.146349 0.0745683 -0.0108271 
-0.14763 0.0929495 -0.0144952 
-0.147895 0.0833554 -0.0159563 
-0.14637 0.089957 -0.0101005 
-0.146778 0.0817212 -0.0120013 
-0.145384 0.0835258 -0.00687609 
-0.181938 0.164452 -0.0177443 
-0.187435 0.1532 -0.0147359 
-0.188008 0.161707 -0.0208511 
-0.19199 0.157516 -0.0213015 
-0.195213 0.15048 -0.0192459 
-0.190943 0.150417 -0.0157378 
-0.192459 0.143357 -0.012279 
-0.19141 0.136258 -0.00671529 
-0.185627 0.143256 -0.00666605 
-0.177761 0.161558 -0.0124316 
-0.184019 0.15315 -0.0119294 
-0.17662 0.157291 -0.00867246 
-0.182405 0.150293 -0.00872171 
-0.178135 0.15023 -0.00521358 
-0.164676 0.140681 0.00885181 
-0.167957 0.137484 0.00802244 
-0.17016 0.132516 0.0095024 
-0.166077 0.132966 0.0130801 
-0.163073 0.135187 0.0143486 
-0.164767 0.123659 0.0210489 
-0.166647 0.128178 0.0159913 
-0.159807 0.135547 0.0172109 
-0.160114 0.128898 0.0217157 
-0.159222 0.143172 0.0122669 
-0.154877 0.141761 0.0174384 
-0.153259 0.139104 0.0209024 
-0.157911 0.133865 0.0202357 
-0.153829 0.134316 0.0238135 
-0.162695 0.122553 -0.0592896 
-0.16089 0.122954 -0.0658293 
-0.160163 0.1212 -0.0699733 
-0.162733 0.115517 -0.0646753 
-0.161918 0.11474 -0.0683822 
-0.160269 0.116704 -0.0731033 
-0.164439 0.103 -0.0680327 
-0.162684 0.109458 -0.0696238 
-0.165322 0.106317 -0.06207 
-0.164848 0.118241 -0.0544986 
-0.166099 0.11413 -0.0529775 
-0.164052 0.113946 -0.0608984 
-0.165216 0.110812 -0.05894 
-0.166865 0.108848 -0.0542189 
-0.197154 0.137856 -0.0547459 
-0.193062 0.147293 -0.0551261 
-0.191758 0.143342 -0.0589736 
-0.195615 0.135376 -0.0581183 
-0.192265 0.136143 -0.0621558 
-0.199834 0.137241 -0.0515159 
-0.201319 0.119903 -0.0588303 
-0.197461 0.12787 -0.0596856 
-0.202822 0.126641 -0.0532255 
-0.196612 0.149313 -0.0493313 
-0.201103 0.14545 -0.0454361 
-0.203819 0.140578 -0.0444384 
-0.202316 0.13384 -0.0500432 
-0.205666 0.133072 -0.0460056 
-0.157513 0.109602 -0.0637683 
-0.155342 0.105633 -0.0667509 
-0.158212 0.0978673 -0.0649821 
-0.154607 0.0985074 -0.0687262 
-0.161846 0.111735 -0.0587848 
-0.160381 0.100386 -0.062245 
-0.158919 0.0904858 -0.06546 
-0.163265 0.0998734 -0.0592498 
-0.161789 0.0827199 -0.0636913 
-0.164688 0.0894616 -0.0594694 
-0.166166 0.108065 -0.0547825 
-0.168322 0.103329 -0.053272 
-0.165423 0.096587 -0.0574939 
-0.169029 0.0959468 -0.0537498 
-0.18453 0.157669 -0.0354162 
-0.188901 0.14991 -0.0370202 
-0.185963 0.154101 -0.0374092 
-0.189591 0.152103 -0.0323817 
-0.188774 0.154919 -0.0301254 
-0.196435 0.146788 -0.0251098 
-0.192806 0.148787 -0.0301373 
-0.19391 0.152296 -0.0227158 
-0.184127 0.161802 -0.0303768 
-0.186185 0.162932 -0.024284 
-0.189326 0.156673 -0.0264146 
-0.188446 0.161995 -0.0207109 
-0.190971 0.156488 -0.0231048 
-0.191661 0.158681 -0.0184664 
-0.181704 0.13666 -0.0528635 
-0.178576 0.142678 -0.057749 
-0.181444 0.133652 -0.0553585 
-0.179941 0.132495 -0.0601166 
-0.178637 0.138513 -0.0600642 
-0.179738 0.14638 -0.0523992 
-0.186157 0.123237 -0.048802 
-0.18335 0.128097 -0.0535077 
-0.185754 0.129947 -0.0458948 
-0.182182 0.145453 -0.0463298 
-0.182906 0.137585 -0.049057 
-0.184047 0.142675 -0.0429355 
-0.184449 0.135964 -0.0458426 
-0.185952 0.137121 -0.0410846 
-0.181086 0.159762 -0.016616 
-0.186272 0.147221 -0.0179614 
-0.182879 0.154661 -0.0185815 
-0.186776 0.148548 -0.0130914 
-0.185679 0.152214 -0.0108071 
-0.190369 0.141638 -0.0105232 
-0.194264 0.135525 -0.00503304 
-0.191174 0.143762 -0.00273126 
-0.180292 0.164224 -0.0114098 
-0.182292 0.162947 -0.00492814 
-0.186082 0.153275 -0.00691109 
-0.184691 0.159438 -0.00104966 
-0.187781 0.151202 -0.00335144 
-0.188284 0.152529 0.00151852 
-0.185742 0.163521 -0.0222306 
-0.191036 0.155453 -0.0268871 
-0.185037 0.161761 -0.0285349 
-0.189593 0.153787 -0.0350606 
-0.186192 0.15884 -0.0323839 
-0.191438 0.153553 -0.0303877 
-0.200821 0.143119 -0.0291989 
-0.195576 0.148406 -0.0311952 
-0.198526 0.148033 -0.0237186 
-0.192511 0.155267 -0.0231487 
-0.189462 0.161202 -0.0173199 
-0.19283 0.158001 -0.0155614 
-0.195125 0.153087 -0.0210419 
-0.196969 0.152853 -0.016369 
-0.177632 0.161004 -0.00966719 
-0.179861 0.155262 -0.00611693 
-0.1788 0.15855 -0.0128655 
-0.180704 0.154125 -0.0142173 
-0.18065 0.153709 -0.00924382 
-0.179818 0.154928 -0.00213818 
-0.184384 0.144277 -0.00498455 
-0.182533 0.149117 -0.00860617 
-0.182446 0.148451 -0.000648736 
-0.17681 0.162306 -0.00355623 
-0.177503 0.160004 0.00226905 
-0.178606 0.157049 0.00503887 
-0.180542 0.152875 0.000703037 
-0.180488 0.152459 0.00567646 
-0.19742 0.158627 -0.0339122 
-0.200173 0.156929 -0.0396164 
-0.202556 0.153519 -0.042549 
-0.205363 0.147261 -0.0436879 
-0.203908 0.146541 -0.0390015 
-0.202028 0.14867 -0.0361092 
-0.207486 0.133017 -0.0347182 
-0.206133 0.139995 -0.0382657 
-0.200864 0.148095 -0.0323601 
-0.203806 0.138844 -0.0307677 
-0.196681 0.155202 -0.0283692 
-0.197318 0.150929 -0.0256783 
-0.200998 0.145102 -0.0296289 
-0.199543 0.144383 -0.0249425 
-0.14582 0.118403 0.00385002 
-0.150203 0.113651 0.00193613 
-0.152439 0.108481 0.00258846 
-0.153277 0.101169 0.00602453 
-0.149663 0.102802 0.00896055 
-0.147449 0.106575 0.00911282 
-0.146277 0.0904645 0.0199431 
-0.149054 0.0961437 0.013571 
-0.143272 0.0987544 0.0182686 
-0.144557 0.107881 0.0114616 
-0.141529 0.117568 0.00898253 
-0.139429 0.114356 0.0131581 
-0.142435 0.106066 0.0148325 
-0.138821 0.107699 0.0177685 
-0.159696 0.0802132 -0.0418925 
-0.158383 0.0750293 -0.035971 
-0.159513 0.0701746 -0.0424787 
-0.159878 0.0759463 -0.0434754 
-0.158674 0.0718496 -0.0379349 
-0.157713 0.0763692 -0.0323359 
-0.156766 0.0626513 -0.0295802 
-0.157971 0.0667479 -0.0351207 
-0.156629 0.0694279 -0.0278507 
-0.158902 0.0843978 -0.0372022 
-0.157681 0.0842332 -0.0309876 
-0.156858 0.0819761 -0.0271181 
-0.156995 0.0751995 -0.0288475 
-0.156155 0.0768745 -0.0243038 
-0.163997 0.119305 0.010369 
-0.163302 0.1115 0.0132246 
-0.163043 0.110394 0.00845604 
-0.163561 0.115632 0.00822109 
-0.164495 0.122639 0.0156158 
-0.163852 0.115054 0.0194252 
-0.163645 0.11417 0.0156102 
-0.162628 0.102571 0.0203705 
-0.162887 0.106704 0.015367 
-0.163302 0.108473 0.0229967 
-0.164619 0.121959 0.0218136 
-0.164494 0.119613 0.0253879 
-0.163821 0.113711 0.0227617 
-0.16408 0.114816 0.0275303 
-0.142304 0.0943947 -0.0301992 
-0.143994 0.0846104 -0.030388 
-0.137275 0.0838434 -0.0353751 
-0.139247 0.0908389 -0.0329315 
-0.141176 0.082507 -0.0327371 
-0.147462 0.0956964 -0.0262673 
-0.140764 0.074977 -0.0341256 
-0.142693 0.0666452 -0.0339311 
-0.147007 0.072839 -0.0299048 
-0.151667 0.0911878 -0.0238681 
-0.147115 0.0835415 -0.0282776 
-0.153293 0.0860284 -0.023435 
-0.148979 0.0798346 -0.0274612 
-0.152881 0.0784983 -0.0248233 
-0.143438 0.0930509 -0.0304013 
-0.142309 0.0811639 -0.0329421 
-0.138407 0.082501 -0.0355776 
-0.14038 0.0894959 -0.0331331 
-0.145128 0.0832665 -0.0305939 
-0.141897 0.0736341 -0.0343324 
-0.143826 0.0653022 -0.0341416 
-0.148141 0.0714949 -0.0301157 
-0.148599 0.0943508 -0.0264718 
-0.152805 0.0898418 -0.0240761 
-0.148251 0.0821968 -0.0284855 
-0.154431 0.0846822 -0.0236453 
-0.150115 0.0784896 -0.0276712 
-0.154018 0.0771525 -0.0250357 
-0.166616 0.121264 0.0164023 
-0.166119 0.117929 0.0111556 
-0.165684 0.114256 0.00900787 
-0.165167 0.109018 0.00924312 
-0.165425 0.110124 0.0140116 
-0.165767 0.112795 0.0163972 
-0.165011 0.105328 0.0161543 
-0.164752 0.101196 0.021158 
-0.165425 0.107098 0.0237839 
-0.165974 0.113679 0.0202119 
-0.16674 0.120584 0.0226001 
-0.166616 0.118238 0.0261745 
-0.165943 0.112336 0.0235487 
-0.166202 0.113442 0.0283172 
-0.137827 0.108654 -0.0323459 
-0.138622 0.104469 -0.0370356 
-0.138805 0.100201 -0.0386181 
-0.137598 0.0961058 -0.0330775 
-0.138439 0.0944298 -0.0376209 
-0.137308 0.0992848 -0.0311138 
-0.136896 0.091004 -0.0302629 
-0.135689 0.0869079 -0.0247223 
-0.135552 0.0936842 -0.0229935 
-0.136605 0.10849 -0.0261315 
-0.13578 0.106233 -0.0222619 
-0.136636 0.100626 -0.0274791 
-0.135918 0.0994557 -0.0239907 
-0.135078 0.101132 -0.0194473 
-0.169557 0.0974219 0.0109799 
-0.173941 0.0926711 0.00906456 
-0.176179 0.0875016 0.00971593 
-0.171191 0.0855937 0.0162413 
-0.173406 0.0818213 0.0160882 
-0.17702 0.0801906 0.0131512 
-0.168299 0.0868983 0.0185909 
-0.170026 0.069482 0.0270704 
-0.1728 0.0751624 0.0206981 
-0.167018 0.0777715 0.0253974 
-0.165268 0.0965847 0.0161134 
-0.16317 0.0933721 0.0202891 
-0.166178 0.0850827 0.0219621 
-0.162564 0.0867134 0.0248991 
-0.176591 0.161354 -0.0365505 
-0.178446 0.153094 -0.0330446 
-0.180326 0.150965 -0.0359378 
-0.181779 0.151685 -0.0406243 
-0.178973 0.157944 -0.0394842 
-0.18255 0.144419 -0.0352033 
-0.183903 0.13744 -0.0316569 
-0.180224 0.143267 -0.0277047 
-0.173839 0.163051 -0.0308455 
-0.1731 0.159626 -0.0253027 
-0.177283 0.152518 -0.0292954 
-0.173737 0.155353 -0.0226125 
-0.177417 0.149526 -0.0265646 
-0.175963 0.148806 -0.021878 
-0.194942 0.157722 -0.00726306 
-0.197962 0.150427 -0.00683946 
-0.198016 0.150843 -0.0118129 
-0.196111 0.155267 -0.0104614 
-0.197129 0.151646 0.000266214 
-0.197172 0.151979 -0.00371259 
-0.199845 0.145836 -0.0062017 
-0.201695 0.140995 -0.00257984 
-0.199759 0.14517 0.00175589 
-0.194121 0.159025 -0.00115209 
-0.194813 0.156722 0.00467334 
-0.195918 0.153768 0.00744326 
-0.197854 0.149594 0.00310753 
-0.197801 0.149177 0.00808104 
-0.18746 0.161368 -0.0285866 
-0.193862 0.15316 -0.0304352 
-0.19202 0.153392 -0.0351087 
-0.188617 0.158447 -0.0324344 
-0.188162 0.16313 -0.0222826 
-0.193459 0.155061 -0.0269353 
-0.198001 0.148012 -0.0312401 
-0.194933 0.154876 -0.0231965 
-0.203246 0.142727 -0.0292408 
-0.200949 0.147641 -0.0237624 
-0.191882 0.160811 -0.0173702 
-0.19525 0.157611 -0.0156099 
-0.197547 0.152697 -0.0210883 
-0.199389 0.152465 -0.0164148 
-0.194092 0.157587 -0.0158696 
-0.198686 0.150037 -0.0100624 
-0.195884 0.152485 -0.0178361 
-0.199276 0.145044 -0.0172175 
-0.199781 0.146371 -0.0123474 
-0.207269 0.133345 -0.00429211 
-0.203374 0.13946 -0.00978079 
-0.204181 0.141583 -0.00198867 
-0.1933 0.162048 -0.0106627 
-0.195301 0.160769 -0.00418148 
-0.1977 0.15726 -0.00030386 
-0.199089 0.151098 -0.00616641 
-0.200788 0.149023 -0.00260729 
-0.201293 0.15035 0.00226279 
-0.174443 0.144093 -0.0563688 
-0.177571 0.138076 -0.0514824 
-0.177312 0.135068 -0.0539775 
-0.175812 0.133911 -0.0587359 
-0.174505 0.139928 -0.0586839 
-0.182026 0.124654 -0.0474196 
-0.179219 0.129514 -0.0521261 
-0.178772 0.139001 -0.0476758 
-0.181621 0.131364 -0.0445128 
-0.175602 0.147795 -0.0510187 
-0.178047 0.14687 -0.0449488 
-0.179911 0.144092 -0.0415539 
-0.180316 0.137381 -0.0444609 
-0.181818 0.138538 -0.0397025 
-0.187784 0.161135 -0.0308003 
-0.188187 0.157002 -0.03584 
-0.192558 0.149243 -0.0374445 
-0.189619 0.153435 -0.0378332 
-0.193248 0.151436 -0.032806 
-0.192431 0.154253 -0.0305495 
-0.200093 0.146122 -0.0255348 
-0.196463 0.148121 -0.030562 
-0.197567 0.151629 -0.0231404 
-0.192984 0.156006 -0.0268387 
-0.189843 0.162265 -0.0247076 
-0.192103 0.161328 -0.0211346 
-0.194629 0.155821 -0.0235291 
-0.195318 0.158014 -0.0188906 
-0.149855 0.11563 -0.0601899 
-0.14768 0.111662 -0.0631712 
-0.14694 0.104536 -0.0651449 
-0.150545 0.103894 -0.0614008 
-0.154189 0.117761 -0.0552071 
-0.152716 0.106412 -0.0586645 
-0.151247 0.0965124 -0.0618769 
-0.154112 0.0887444 -0.0601065 
-0.157015 0.0954852 -0.0558865 
-0.158508 0.114089 -0.0512042 
-0.160659 0.109352 -0.0496926 
-0.1556 0.105897 -0.0556692 
-0.157756 0.102611 -0.0539128 
-0.161361 0.101969 -0.0501688 
-0.162675 0.155384 -0.0472387 
-0.161374 0.151433 -0.051086 
-0.165233 0.143468 -0.0502279 
-0.161883 0.144234 -0.054267 
-0.166222 0.157406 -0.0414424 
-0.16677 0.145949 -0.0468552 
-0.17094 0.127996 -0.0509352 
-0.167081 0.135961 -0.0517933 
-0.172439 0.134735 -0.0453307 
-0.170712 0.153545 -0.0375448 
-0.169448 0.145335 -0.0436239 
-0.173429 0.148674 -0.0365452 
-0.17193 0.141935 -0.0421497 
-0.175278 0.141167 -0.0381107 
-0.160965 0.12295 -0.0658598 
-0.160345 0.1167 -0.0731347 
-0.160237 0.121195 -0.0700041 
-0.161995 0.114737 -0.0684138 
-0.16277 0.122548 -0.0593203 
-0.16281 0.115514 -0.0647067 
-0.162763 0.109455 -0.069656 
-0.164519 0.102997 -0.0680657 
-0.165401 0.106314 -0.0621027 
-0.164923 0.118237 -0.0545299 
-0.166176 0.114126 -0.0530092 
-0.164129 0.113942 -0.0609301 
-0.165294 0.110808 -0.0589721 
-0.166944 0.108845 -0.0542513 
-0.187319 0.130398 0.0222015 
-0.192773 0.127907 0.0187868 
-0.19117 0.122413 0.0242837 
-0.196054 0.12471 0.0179577 
-0.198258 0.119741 0.019438 
-0.194174 0.120191 0.0230155 
-0.194744 0.115403 0.0259269 
-0.192863 0.110885 0.0309846 
-0.188211 0.116123 0.0316508 
-0.187904 0.122773 0.0271457 
-0.182973 0.128987 0.0273727 
-0.181355 0.126329 0.0308368 
-0.186008 0.121092 0.0301706 
-0.181925 0.121541 0.0337481 
-0.198287 0.16006 -0.0208213 
-0.20227 0.155868 -0.0212705 
-0.201222 0.14877 -0.0157062 
-0.205493 0.148833 -0.0192134 
-0.194297 0.151503 -0.0118994 
-0.197712 0.151553 -0.0147052 
-0.201688 0.134613 -0.00668178 
-0.202736 0.141711 -0.0122461 
-0.195904 0.141611 -0.00663449 
-0.192215 0.162805 -0.0177159 
-0.188039 0.159911 -0.0124038 
-0.192681 0.148647 -0.00869157 
-0.186897 0.155645 -0.00864422 
-0.188411 0.148584 -0.00518426 
-0.147162 0.0963525 -0.0213265 
-0.148554 0.0914686 -0.0265946 
-0.146587 0.0847638 -0.0198541 
-0.148966 0.08631 -0.0283482 
-0.147142 0.0809635 -0.0220479 
-0.148537 0.0791574 -0.0271718 
-0.14433 0.0691868 -0.0125216 
-0.146155 0.0745333 -0.0188219 
-0.145472 0.0862087 -0.015755 
-0.143923 0.0774232 -0.0106238 
-0.145205 0.0958036 -0.0142974 
-0.144351 0.0845758 -0.0118002 
-0.143943 0.0928121 -0.0099023 
-0.142956 0.086382 -0.00667634 
-0.185215 0.157027 -0.0412096 
-0.190722 0.152813 -0.0383634 
-0.185254 0.154185 -0.0447398 
-0.190204 0.150772 -0.0417075 
-0.187491 0.150038 -0.0466608 
-0.18736 0.159508 -0.0348934 
-0.198479 0.143504 -0.0386148 
-0.193527 0.146918 -0.0416472 
-0.197871 0.148093 -0.0337218 
-0.19173 0.158788 -0.0293216 
-0.192893 0.1534 -0.0344006 
-0.195026 0.156828 -0.0269078 
-0.195634 0.15224 -0.0318008 
-0.198348 0.152974 -0.0268476 
-0.180478 0.164636 -0.0193118 
-0.175525 0.1611 -0.0234904 
-0.173803 0.156973 -0.0259832 
-0.179492 0.151863 -0.024475 
-0.174736 0.150881 -0.027621 
-0.181591 0.154811 -0.022184 
-0.188016 0.141054 -0.0233462 
-0.182327 0.146164 -0.0248545 
-0.185395 0.155596 -0.0196672 
-0.189936 0.147735 -0.0198209 
-0.186938 0.163456 -0.0159401 
-0.190922 0.160508 -0.0146576 
-0.189002 0.153827 -0.0181831 
-0.193757 0.154809 -0.015037 
-0.147262 0.0963055 -0.0294881 
-0.141089 0.0950056 -0.034027 
-0.139046 0.0821074 -0.0351094 
-0.134515 0.0836473 -0.038524 
-0.137265 0.0912085 -0.0367378 
-0.142501 0.0843313 -0.0326192 
-0.138108 0.0739304 -0.0355299 
-0.139889 0.0648295 -0.0339015 
-0.145357 0.0714667 -0.0300664 
-0.151961 0.0913103 -0.0258319 
-0.146124 0.0830993 -0.0298876 
-0.153573 0.085665 -0.0244451 
-0.148106 0.0790277 -0.0282801 
-0.152636 0.0774879 -0.0248655 
-0.14637 0.106052 -0.00461872 
-0.145371 0.101461 -0.0106028 
-0.146344 0.0956104 -0.00380997 
-0.144956 0.0967351 -0.0128302 
-0.144985 0.0902996 -0.0120435 
-0.145887 0.0920999 -0.00641969 
-0.146277 0.0863841 -0.00338347 
-0.147208 0.0817487 0.00302706 
-0.147719 0.0892647 0.00561472 
-0.147065 0.097051 0.000689124 
-0.147535 0.105782 0.00289448 
-0.148201 0.103216 0.00741568 
-0.14769 0.0957006 0.00482802 
-0.148591 0.0975005 0.0104519 
-0.181312 0.126423 -0.0696145 
-0.182426 0.118894 -0.0671933 
-0.183174 0.118065 -0.0731611 
-0.182234 0.12304 -0.0727348 
-0.181662 0.121316 -0.0639195 
-0.18326 0.110104 -0.0596911 
-0.183067 0.114251 -0.0652326 
-0.181871 0.115577 -0.0556841 
-0.180098 0.129342 -0.06276 
-0.181064 0.121978 -0.0591454 
-0.179517 0.128413 -0.0552917 
-0.179543 0.126025 -0.0512508 
-0.180931 0.120552 -0.0552578 
-0.180184 0.121382 -0.04929 
-0.170803 0.165736 -0.0231508 
-0.175728 0.163451 -0.0289268 
-0.176825 0.155836 -0.0228164 
-0.179386 0.159816 -0.0311985 
-0.179884 0.153447 -0.0253962 
-0.182994 0.15362 -0.0307231 
-0.182248 0.147182 -0.0227902 
-0.182747 0.140814 -0.0169879 
-0.177274 0.146906 -0.0142671 
-0.168267 0.163036 -0.0161422 
-0.168193 0.159194 -0.0120217 
-0.174338 0.155698 -0.0185549 
-0.173666 0.153102 -0.0147425 
-0.170558 0.15293 -0.00941559 
-0.183839 0.112191 0.0149564 
-0.186965 0.107767 0.0121745 
-0.18675 0.0999424 0.0174254 
-0.189764 0.100194 0.0119324 
-0.179343 0.114939 0.0212055 
-0.184062 0.102841 0.0203787 
-0.188127 0.0844437 0.0246315 
-0.188343 0.0922686 0.0193805 
-0.183519 0.0918667 0.0281694 
-0.176604 0.111589 0.0281398 
-0.176112 0.106863 0.0319494 
-0.18165 0.102641 0.024773 
-0.180721 0.0994401 0.0284116 
-0.177706 0.0991894 0.0339046 
-0.185361 0.163064 -0.0294339 
-0.186062 0.160784 -0.0339347 
-0.189014 0.154814 -0.0303146 
-0.188023 0.15602 -0.0364932 
-0.188745 0.156093 -0.0260783 
-0.194324 0.143599 -0.0267816 
-0.191372 0.149568 -0.0304016 
-0.192957 0.14764 -0.0205159 
-0.185686 0.16362 -0.0214904 
-0.18774 0.160171 -0.0146052 
-0.189538 0.155129 -0.0211355 
-0.18963 0.156445 -0.0116918 
-0.190996 0.152404 -0.0179574 
-0.191987 0.151199 -0.0117788 
-0.161112 0.121557 -0.058715 
-0.1577 0.121248 -0.0660055 
-0.159138 0.11388 -0.0626949 
-0.155767 0.119027 -0.0700733 
-0.15732 0.112692 -0.0665514 
-0.154667 0.114156 -0.0722746 
-0.158831 0.100899 -0.0629415 
-0.157279 0.107234 -0.0664634 
-0.161523 0.104893 -0.0573064 
-0.16126 0.112709 -0.0581164 
-0.164066 0.117736 -0.05227 
-0.165315 0.113758 -0.0494701 
-0.162624 0.109765 -0.0551052 
-0.165276 0.108301 -0.0493821 
-0.190016 0.200298 -0.107527 
-0.189474 0.194115 -0.113968 
-0.188447 0.197915 -0.11103 
-0.19403 0.19433 -0.11034 
-0.194707 0.20206 -0.10229 
-0.195988 0.195962 -0.107279 
-0.19688 0.190617 -0.111827 
-0.199632 0.196134 -0.104378 
-0.202463 0.187031 -0.111139 
-0.204168 0.190961 -0.106025 
-0.200949 0.200815 -0.0988215 
-0.204846 0.19869 -0.0979726 
-0.203141 0.19476 -0.103087 
-0.207696 0.194976 -0.0994592 
-0.199991 0.24363 -0.0718629 
-0.199966 0.242794 -0.0763699 
-0.206284 0.24028 -0.0758287 
-0.20275 0.240902 -0.0803024 
-0.207008 0.240713 -0.0719293 
-0.216799 0.235625 -0.0774305 
-0.210482 0.238139 -0.0779718 
-0.216135 0.237144 -0.0708137 
-0.202835 0.243691 -0.0652793 
-0.208472 0.242136 -0.0611259 
-0.209834 0.240215 -0.0683503 
-0.213352 0.239036 -0.0668811 
-0.212688 0.240554 -0.0602643 
-0.216885 0.238413 -0.0624074 
-0.209235 0.199389 -0.0389038 
-0.211217 0.200591 -0.0458849 
-0.218223 0.194059 -0.0441867 
-0.21448 0.199629 -0.0501817 
-0.22011 0.196183 -0.0532262 
-0.22035 0.193879 -0.0480804 
-0.231947 0.18376 -0.0469654 
-0.226076 0.189511 -0.0490667 
-0.226462 0.185824 -0.0408334 
-0.211795 0.195061 -0.0335349 
-0.215346 0.191334 -0.0316567 
-0.218416 0.192216 -0.0400701 
-0.220831 0.18927 -0.0377888 
-0.221072 0.186966 -0.0326429 
-0.214423 0.252351 -0.0788979 
-0.22134 0.247469 -0.0763485 
-0.2178 0.252206 -0.0826781 
-0.223493 0.250128 -0.0849345 
-0.223574 0.247832 -0.0798796 
-0.212239 0.25061 -0.0723338 
-0.235073 0.24046 -0.0773156 
-0.229299 0.244834 -0.0801141 
-0.221406 0.245632 -0.0723046 
-0.229431 0.241161 -0.0720262 
-0.214621 0.24684 -0.066766 
-0.218095 0.243939 -0.0644803 
-0.223738 0.243238 -0.0697697 
-0.22382 0.240942 -0.0647148 
-0.184901 0.212055 -0.0986849 
-0.186099 0.210518 -0.102432 
-0.189131 0.207743 -0.104438 
-0.190425 0.207478 -0.0991361 
-0.185139 0.212869 -0.091946 
-0.190921 0.208239 -0.0913365 
-0.198301 0.201559 -0.0957237 
-0.189886 0.208451 -0.0955775 
-0.193975 0.204598 -0.0990198 
-0.196047 0.204175 -0.0905382 
-0.188008 0.211421 -0.0859622 
-0.190759 0.209566 -0.0833481 
-0.193015 0.20695 -0.0885335 
-0.194309 0.206685 -0.0832322 
-0.227432 0.177711 -0.0625683 
-0.226985 0.174405 -0.0685468 
-0.233157 0.170599 -0.0649028 
-0.228364 0.171113 -0.0716293 
-0.232027 0.166737 -0.0728431 
-0.233735 0.168126 -0.0679386 
-0.243452 0.16132 -0.0635001 
-0.238081 0.164306 -0.0671907 
-0.240812 0.16653 -0.0593435 
-0.234522 0.171711 -0.0609791 
-0.231081 0.17774 -0.0567761 
-0.234508 0.176115 -0.0539731 
-0.237148 0.170906 -0.0581297 
-0.238856 0.172294 -0.0532252 
-0.205638 0.170236 -0.0849296 
-0.210662 0.160389 -0.0890356 
-0.205726 0.158966 -0.0902995 
-0.204191 0.165583 -0.0873225 
-0.210552 0.174476 -0.082323 
-0.212614 0.163775 -0.0871874 
-0.220644 0.149148 -0.0932199 
-0.214172 0.154341 -0.091507 
-0.22207 0.156617 -0.0894846 
-0.216563 0.164913 -0.0861762 
-0.217484 0.17365 -0.0818959 
-0.221959 0.170705 -0.082772 
-0.220533 0.163235 -0.0865075 
-0.225469 0.164657 -0.0852434 
-0.204421 0.241159 -0.0683177 
-0.212027 0.240419 -0.0705102 
-0.20456 0.237514 -0.0711314 
-0.211387 0.237334 -0.0727295 
-0.207721 0.234059 -0.074447 
-0.222842 0.235008 -0.0769562 
-0.216015 0.235189 -0.0753581 
-0.214959 0.24304 -0.0691362 
-0.221879 0.24043 -0.0726101 
-0.207261 0.246209 -0.0650678 
-0.213217 0.24902 -0.0641956 
-0.217753 0.249305 -0.0649484 
-0.218716 0.243885 -0.0692945 
-0.222381 0.24716 -0.0675769 
-0.193812 0.236884 -0.0805758 
-0.194014 0.235215 -0.0842909 
-0.196885 0.233862 -0.087592 
-0.200052 0.235646 -0.0839785 
-0.20055 0.237116 -0.0807791 
-0.210227 0.235438 -0.085522 
-0.204188 0.235006 -0.0858343 
-0.209255 0.237862 -0.0800528 
-0.19621 0.239425 -0.0752082 
-0.203083 0.238544 -0.0778883 
-0.201412 0.241168 -0.0719034 
-0.205415 0.241641 -0.0712824 
-0.206386 0.239216 -0.0767516 
-0.209552 0.241002 -0.0731381 
-0.214611 0.173744 -0.0760399 
-0.216091 0.171606 -0.0820896 
-0.220827 0.165487 -0.0780323 
-0.218393 0.168479 -0.0851079 
-0.222281 0.163322 -0.0861007 
-0.222347 0.163389 -0.0810538 
-0.226262 0.158259 -0.0800279 
-0.230218 0.153168 -0.0759739 
-0.22637 0.158365 -0.0719528 
-0.220881 0.165541 -0.0739947 
-0.216252 0.171766 -0.0699771 
-0.218632 0.16872 -0.066939 
-0.222482 0.163523 -0.07096 
-0.222548 0.16359 -0.0659131 
-0.203694 0.242477 -0.0650855 
-0.208238 0.242033 -0.0676139 
-0.213324 0.236266 -0.0648506 
-0.214706 0.239059 -0.0687267 
-0.199558 0.24054 -0.0602991 
-0.208913 0.23377 -0.0592889 
-0.210018 0.236004 -0.0623898 
-0.21924 0.232175 -0.064413 
-0.224325 0.226408 -0.0616497 
-0.217028 0.227707 -0.0582112 
-0.200377 0.235775 -0.0557827 
-0.203263 0.231981 -0.0536596 
-0.21056 0.230682 -0.0570983 
-0.209178 0.227889 -0.0532221 
